ply
format ascii 1.0
comment PCL generated
element vertex 1314
property float x
property float y
property float z
element camera 0
property float view_px
property float view_py
property float view_pz
property float x_axisx
property float x_axisy
property float x_axisz
property float y_axisx
property float y_axisy
property float y_axisz
property float z_axisx
property float z_axisy
property float z_axisz
property float focal
property float scalex
property float scaley
property float centerx
property float centery
property int viewportx
property int viewporty
property float k1
property float k2
end_header
-0.28340763 -0.42435402 -0.05938568
-0.26959825 -0.4291507 -0.051280461
-0.25869384 -0.42537299 -0.042647269
0.056370344 -0.43626857 -0.048481617
0.068803065 -0.43148643 -0.050613843
0.089025892 -0.4319818 -0.050067872
0.10901682 -0.43499184 -0.050459165
0.120117 -0.43899798 -0.049026046
-0.34204575 -0.41388741 -0.043712676
-0.33075821 -0.40973958 -0.051824007
-0.31912401 -0.40937099 -0.059850499
-0.28228399 -0.417873 -0.059847899
-0.26788694 -0.41460416 -0.055608347
-0.25218648 -0.40789449 -0.04844667
-0.34211469 -0.38872272 -0.046742316
-0.33616909 -0.39115387 -0.055951431
-0.24579778 -0.39136824 -0.053719372
-0.23666067 -0.38682386 -0.045323264
0.051397137 -0.38087499 -0.042684924
0.070686579 -0.38103297 -0.040700115
0.086583219 -0.38256249 -0.043852739
-0.34484193 -0.36909765 -0.049893104
-0.338929 -0.37536526 -0.058129378
-0.2325574 -0.36936438 -0.050582834
0.032623824 -0.36738428 -0.045255106
0.048742108 -0.36954772 -0.050759714
0.069363952 -0.37000296 -0.047629941
0.089158833 -0.36952111 -0.051476751
0.10459138 -0.36681363 -0.047567468
-0.3473461 -0.34994757 -0.050623938
-0.22429805 -0.35067043 -0.050577901
-0.2194812 -0.34198016 -0.049309421
0.015855098 -0.34670675 -0.044818383
0.02807956 -0.35084364 -0.053190049
0.046792194 -0.35659674 -0.058280434
0.068577133 -0.3567529 -0.057248332
0.083277501 -0.35818851 -0.059450101
0.1130469 -0.35365376 -0.052539263
0.12389456 -0.34499702 -0.048065059
-0.3502036 -0.33007988 -0.050462514
-0.2204985 -0.337109 -0.0589444
-0.21791136 -0.32974544 -0.049921501
0.012394557 -0.32966217 -0.049743753
0.021672301 -0.33569202 -0.059127003
0.119002 -0.33852601 -0.0589444
0.13017862 -0.3298631 -0.050398938
-0.35511208 -0.3101128 -0.050648354
-0.21699719 -0.31015858 -0.050619461
0.0088655651 -0.3100135 -0.050148372
0.13709842 -0.31034738 -0.050335422
-0.36094067 -0.28287199 -0.057999801
-0.35634294 -0.29086837 -0.049993034
-0.22105904 -0.28468338 -0.048711188
-0.21830559 -0.29357001 -0.051731747
0.012609117 -0.29066533 -0.049667694
0.0219943 -0.28379199 -0.058298003
0.13937919 -0.29481781 -0.047808316
0.14272827 -0.28865653 -0.051824242
-0.36173186 -0.26795605 -0.052437801
-0.35777056 -0.2744785 -0.046907008
-0.2251191 -0.27046195 -0.050307769
0.017325673 -0.27701938 -0.046271589
0.026608679 -0.26869074 -0.051459264
0.13835156 -0.26903442 -0.049608469
0.14056632 -0.27681175 -0.054851096
-0.36158881 -0.25533485 -0.053881083
-0.35749057 -0.24795766 -0.048623066
-0.24262182 -0.24503557 -0.050144676
-0.23335506 -0.25386071 -0.050847787
0.028285488 -0.25078139 -0.050671563
0.13554133 -0.25062552 -0.050130829
-0.35142875 -0.2310313 -0.050472893
-0.2416908 -0.23499072 -0.049750067
-0.23849605 -0.22478719 -0.050577909
0.023596851 -0.23047802 -0.050333112
0.13356273 -0.23090394 -0.050795905
-0.34537843 -0.21174492 -0.052154362
-0.33905908 -0.20765519 -0.04302812
-0.22918478 -0.21481556 -0.05088912
-0.21381506 -0.2071704 -0.047745347
0.01506519 -0.20971349 -0.050508853
0.02046218 -0.219506 -0.04987618
0.13349095 -0.21135686 -0.049495533
0.14128324 -0.20321149 -0.056819022
-0.34401578 -0.19091357 -0.052911799
-0.3380743 -0.19238208 -0.043174859
-0.20637915 -0.19387484 -0.053816494
-0.19301692 -0.18820979 -0.046913944
0.0056197164 -0.19112542 -0.050453015
0.13921949 -0.19825199 -0.043358453
0.14575054 -0.19065942 -0.050934464
-0.34572986 -0.17121516 -0.050221186
-0.200104 -0.17916299 -0.0589444
-0.18712199 -0.17242076 -0.052198593
-0.17400086 -0.16835383 -0.044418283
-0.0068761362 -0.1708986 -0.050464276
0.14860539 -0.17140453 -0.050263528
-0.34749088 -0.1502859 -0.050479367
-0.18026701 -0.158904 -0.0589444
-0.16871311 -0.15095453 -0.049920771
-0.15885334 -0.14110367 -0.042886138
-0.0241707 -0.14530614 -0.049688786
-0.01639734 -0.15600583 -0.051273476
0.14953618 -0.15036078 -0.050446011
-0.34356803 -0.12904644 -0.050376181
-0.16108833 -0.136039 -0.057923999
-0.15034573 -0.12919998 -0.05034003
-0.13577299 -0.12238099 -0.0457436
-0.048407443 -0.12241121 -0.049950764
-0.033468887 -0.1308146 -0.051185381
0.14749794 -0.12903453 -0.050516516
-0.34082958 -0.11639811 -0.051576473
-0.33573657 -0.106837 -0.050366364
-0.142011 -0.1181085 -0.058912151
-0.12740912 -0.11291133 -0.052256659
-0.10984693 -0.10428167 -0.050556194
-0.089545839 -0.10160747 -0.054852206
-0.070578896 -0.11108826 -0.049708433
-0.05776576 -0.118881 -0.052922536
0.13939716 -0.10248318 -0.057068828
0.14224201 -0.11019908 -0.049633298
-0.32824603 -0.089163154 -0.050186884
-0.10092 -0.099294297 -0.043358453
-0.089204751 -0.09760347 -0.045389637
0.13494627 -0.089482658 -0.050432146
-0.32126269 -0.078423902 -0.04997066
-0.31470048 -0.068069033 -0.050483808
0.1179436 -0.06267108 -0.052143238
0.12370706 -0.072190769 -0.049280789
-0.30500573 -0.055709716 -0.050314154
-0.29353195 -0.046510216 -0.050825905
0.099503651 -0.0409755 -0.04902605
0.10723791 -0.050081804 -0.049823496
-0.28493524 -0.037326626 -0.048411898
-0.27107391 -0.03119427 -0.050324876
-0.25608078 -0.024364457 -0.052172579
0.07333076 -0.023783272 -0.05044296
0.088826209 -0.032667372 -0.050390296
-0.24738926 -0.010031186 -0.050229046
-0.239777 -0.0018198499 -0.0589444
0.058421645 -0.0036281128 -0.054148711
0.063274205 -0.012154838 -0.049412273
-0.241585 0.0010706383 -0.045247648
-0.23060288 0.0094835442 -0.050204601
-0.21914899 0.0185345 -0.0589444
0.037349198 0.017576186 -0.054491255
0.049889062 0.0099811843 -0.05006171
-0.22176133 0.025312938 -0.046090171
-0.21792893 0.032016054 -0.05309755
0.034366671 0.029720882 -0.050609063
0.040444449 0.034120552 -0.041306853
-0.21427967 0.050151501 -0.050384723
0.033959769 0.049774539 -0.052015577
0.041264251 0.049391642 -0.04266398
-0.21346457 0.069773011 -0.050375953
0.036492411 0.069589227 -0.051251899
0.040853467 0.063875601 -0.041566733
-0.22044301 0.097881302 -0.0532768
-0.21555535 0.08906135 -0.050346699
0.038603667 0.082066782 -0.051623706
0.044802446 0.091779567 -0.049959138
-0.22933197 0.10934699 -0.05027388
0.054183032 0.10912143 -0.05072131
0.061020236 0.11846668 -0.047609169
-0.24662612 0.13376527 -0.050818734
-0.23845316 0.12239107 -0.049788993
0.07086312 0.12945439 -0.050109409
-0.26182213 0.15222444 -0.049911618
-0.25792161 0.14268406 -0.051649619
0.079150081 0.14141916 -0.050185338
0.084118515 0.15100215 -0.050847787
-0.28681752 0.17674159 -0.056500241
-0.26956055 0.16885597 -0.049593888
0.093639933 0.16307411 -0.049380094
0.10911505 0.16638722 -0.05001834
0.12996553 0.16792023 -0.050195552
0.14966275 0.17326932 -0.0532098
0.162965 0.17692767 -0.057999801
-0.32195801 0.199899 -0.0593528
-0.30881116 0.1936416 -0.055962149
-0.29116082 0.18989705 -0.048528843
-0.27741003 0.18440765 -0.043896828
0.15449058 0.18831687 -0.045968112
0.16688378 0.19132109 -0.054314796
-0.3255944 0.21301551 -0.056607485
-0.3102012 0.21096544 -0.050038438
-0.29380968 0.20897743 -0.042218819
0.15823466 0.21053033 -0.042091787
0.1696727 0.21112899 -0.052176226
-0.32672065 0.23018952 -0.056805711
-0.31020719 0.23095945 -0.049108878
-0.29612234 0.23136884 -0.042166159
0.15856467 0.23132259 -0.041822907
0.16934891 0.2305778 -0.051561967
-0.32412478 0.24544923 -0.057694454
-0.31047225 0.25027972 -0.053163253
-0.29332161 0.2523708 -0.044765271
0.15474631 0.25305557 -0.046206899
0.16649728 0.24933435 -0.054944299
-0.30306569 0.26297334 -0.058290601
-0.28881586 0.26857975 -0.052027483
-0.27830309 0.2768915 -0.048013978
0.117283 0.27924499 -0.042049199
0.13167517 0.27466506 -0.04865323
0.14871192 0.26825795 -0.052057039
0.16161901 0.263659 -0.058604151
-0.27600947 0.29014564 -0.050528485
0.097059257 0.29789534 -0.042886134
0.10960998 0.2909368 -0.050215654
0.12372091 0.28243655 -0.055372704
-0.27401903 0.31028908 -0.050450113
0.093084261 0.31051505 -0.050254025
0.101293 0.30131575 -0.056819025
-0.26468357 0.32656616 -0.049413145
-0.25526997 0.33550939 -0.051237669
0.076255508 0.33556816 -0.051238656
0.084542364 0.32585415 -0.049813222
-0.24566063 0.34854567 -0.05021356
-0.23866537 0.35707414 -0.05490705
0.056785349 0.35773137 -0.056110576
0.066832431 0.34888145 -0.050201785
-0.23011295 0.36780548 -0.048881482
-0.21763554 0.37569922 -0.05309774
0.048042618 0.36998364 -0.050218418
0.0602502 0.361426 -0.041941501
-0.20790432 0.39050153 -0.050542276
-0.19727001 0.39919651 -0.057527497
0.031189866 0.39209646 -0.050753336
0.041117888 0.38232112 -0.047892533
-0.20046249 0.401099 -0.043358453
-0.19207853 0.41061175 -0.050378915
0.013442398 0.41359311 -0.051629204
0.022396207 0.40402281 -0.048669104
-0.1815661 0.42161283 -0.049412474
-0.16895002 0.43099585 -0.050611462
-0.15371989 0.43870363 -0.051591784
-0.021028399 0.43771085 -0.050187867
-0.01093073 0.43025193 -0.050374713
0.0034342748 0.42248958 -0.049498353
-0.14408131 0.44472137 -0.050289985
-0.12935944 0.4513126 -0.050442953
-0.10930327 0.4560031 -0.050620075
-0.089531824 0.45513791 -0.050442949
-0.06970498 0.45244879 -0.05043659
-0.049900141 0.45000696 -0.050620064
-0.03151913 0.44408575 -0.050442956
-0.40298527 -0.48826602 -0.036895949
-0.38936409 -0.49020907 -0.030266991
-0.37074637 -0.49361631 -0.029699409
-0.35034576 -0.49186099 -0.030693637
-0.33045924 -0.49037066 -0.03060627
-0.31065607 -0.49079189 -0.030429162
-0.29088029 -0.49295416 -0.030545859
-0.2701689 -0.49369636 -0.030798284
-0.25484389 -0.48561716 -0.027302057
0.03476771 -0.48683339 -0.02935992
0.049262304 -0.49339482 -0.030501328
0.069226556 -0.49135986 -0.030587086
0.088936701 -0.49156046 -0.030617325
0.1087817 -0.49297902 -0.030606272
0.12994397 -0.49534544 -0.03059038
0.15238872 -0.4928011 -0.029958667
0.16280764 -0.48501498 -0.035654306
-0.40316254 -0.46943244 -0.036090981
-0.38983801 -0.46908429 -0.026204398
-0.3784155 -0.46250525 -0.021979377
-0.26082167 -0.47454897 -0.039107699
-0.25377157 -0.46876729 -0.029879343
0.03525367 -0.46864024 -0.030758344
0.15835364 -0.46558249 -0.027641686
0.16180784 -0.47205505 -0.033331465
-0.4010435 -0.45612901 -0.037773252
-0.38818726 -0.45202559 -0.034003228
-0.37297592 -0.4474622 -0.026849555
-0.25039488 -0.44900894 -0.030831933
0.03603011 -0.45029804 -0.02698083
0.042151649 -0.44695649 -0.036198299
0.13497269 -0.44403544 -0.030646861
0.1495308 -0.45187777 -0.03077559
-0.36591539 -0.4341211 -0.032291856
-0.35376948 -0.42449099 -0.029929869
-0.25173467 -0.42956746 -0.031152727
0.037287284 -0.43680501 -0.024371859
0.050574295 -0.42902493 -0.030452358
0.067329876 -0.42292607 -0.033526149
0.090241008 -0.42617849 -0.031335395
0.10906346 -0.43380278 -0.030643636
0.12413648 -0.43845931 -0.030039512
-0.34484914 -0.41031647 -0.030280044
-0.33984801 -0.40370399 -0.039107699
-0.24512124 -0.41388831 -0.033197638
-0.23671101 -0.40537968 -0.028346872
0.036991898 -0.40181467 -0.021654068
0.051053282 -0.40710607 -0.023187652
0.069277234 -0.41024172 -0.025590589
0.087326616 -0.40832084 -0.025743762
0.101697 -0.40087 -0.02094375
-0.34620628 -0.38986099 -0.030707983
-0.23180614 -0.38975585 -0.030471766
0.0192484 -0.381033 -0.0221048
0.030728016 -0.38836545 -0.028548107
0.049394056 -0.39034832 -0.034165479
0.068938248 -0.39055854 -0.033824243
0.090710163 -0.39159346 -0.03378715
0.10625816 -0.38859841 -0.025582919
-0.34584412 -0.36972851 -0.030695369
-0.22678199 -0.36959577 -0.030374363
0.015957836 -0.36757234 -0.027797956
0.024916744 -0.37323996 -0.035306808
0.11249784 -0.37237233 -0.031920474
0.12131574 -0.36252066 -0.028429933
-0.34815329 -0.34987321 -0.030598983
-0.22213599 -0.3498528 -0.030542471
0.0093195848 -0.3500385 -0.030542174
0.119828 -0.358363 -0.039107699
0.12601988 -0.34944093 -0.030078338
-0.3533316 -0.32985902 -0.030674635
-0.22148058 -0.33067214 -0.027941363
-0.21897148 -0.32766291 -0.037534136
-0.001398252 -0.32461455 -0.025609571
0.0035806056 -0.33163229 -0.032210667
0.13135986 -0.33006743 -0.030846359
-0.35606822 -0.3105084 -0.030569706
-0.22195703 -0.30963671 -0.027696567
-0.21909635 -0.31099743 -0.037487958
-0.0013834384 -0.31302157 -0.02718208
0.0015921416 -0.30812895 -0.033631973
0.13501579 -0.3098231 -0.030640338
-0.35668159 -0.29036361 -0.03062257
-0.22308366 -0.29027957 -0.030288607
-0.21994001 -0.29885301 -0.039565701
0.007336353 -0.29016402 -0.030113431
0.13635252 -0.2905274 -0.030090673
0.14040799 -0.28185001 -0.039107699
-0.35635588 -0.27081323 -0.03034851
-0.22721572 -0.27053249 -0.030609258
0.01544565 -0.27327302 -0.03005988
0.023227064 -0.26442081 -0.031929068
0.13504115 -0.27017057 -0.030380366
0.140378 -0.27901599 -0.039107699
-0.35228029 -0.25068918 -0.030608911
-0.24575487 -0.24610175 -0.029122001
-0.23520337 -0.25462079 -0.031877268
0.027414851 -0.25079486 -0.030547233
0.13057221 -0.25050047 -0.03055176
-0.34609848 -0.2345766 -0.032588169
-0.33325958 -0.22611913 -0.027709646
-0.24948387 -0.23142722 -0.029007144
-0.23932999 -0.22330798 -0.034384698
0.024583263 -0.23039992 -0.030539723
0.12696655 -0.230841 -0.030602492
-0.32871446 -0.21024825 -0.030121118
-0.31929922 -0.209304 -0.0212093
-0.240816 -0.216592 -0.0209908
-0.22995459 -0.21565349 -0.030102454
-0.21304458 -0.20618059 -0.031181267
0.01386841 -0.20865114 -0.030051442
0.021041322 -0.21825935 -0.029031932
0.118276 -0.211004 -0.021441266
0.12455651 -0.21091785 -0.031069191
-0.32957518 -0.19102448 -0.02956946
-0.2022974 -0.19566557 -0.028896019
-0.19228664 -0.18638611 -0.032050312
-0.0027785962 -0.1850796 -0.027504038
0.0038190042 -0.19262229 -0.031521555
0.13364831 -0.19199696 -0.028574744
0.14284967 -0.18620849 -0.036224049
-0.34139836 -0.16377366 -0.034856997
-0.33495289 -0.17265609 -0.029690282
-0.18257745 -0.17803434 -0.029189361
-0.1711757 -0.16870418 -0.030322891
-0.0090306262 -0.17145422 -0.030634833
0.13718008 -0.17405 -0.024173683
0.14368041 -0.17020999 -0.033076052
-0.34178388 -0.15290405 -0.035827454
-0.33693635 -0.14919682 -0.026553228
-0.16216706 -0.15886065 -0.030862253
-0.15357965 -0.14826679 -0.030390033
-0.023717513 -0.1457721 -0.030439572
-0.01632791 -0.15669996 -0.032447383
0.13995399 -0.15243885 -0.021913951
0.14356193 -0.14978375 -0.03162995
-0.34137362 -0.12944254 -0.037798993
-0.33677679 -0.12833835 -0.028298054
-0.14541236 -0.13454826 -0.031324483
-0.13333096 -0.1256609 -0.028817222
-0.048397385 -0.12345265 -0.03081149
-0.033385716 -0.13184495 -0.030371925
0.13888952 -0.12655666 -0.024278602
0.14325525 -0.13019492 -0.032959562
-0.33361351 -0.10911434 -0.030503584
-0.12322894 -0.11609557 -0.032097753
-0.11221303 -0.10610374 -0.031295575
-0.06993293 -0.11044845 -0.030754775
-0.058008272 -0.11923472 -0.028177286
0.13792776 -0.10830489 -0.02784317
0.14116508 -0.11149139 -0.037145838
-0.32749054 -0.089404434 -0.031006856
-0.10238658 -0.098162778 -0.029594192
-0.089421317 -0.094248272 -0.030549597
-0.078515626 -0.098290339 -0.02777246
0.13383897 -0.08963979 -0.030515427
-0.32083946 -0.077190474 -0.030795194
-0.31616047 -0.066793159 -0.030961001
0.118529 -0.060812201 -0.0221048
0.12397265 -0.069569014 -0.030857714
-0.30669227 -0.053098671 -0.030677138
-0.29685456 -0.044156939 -0.030600455
0.098292299 -0.040719599 -0.023521699
0.10905972 -0.05020766 -0.030859331
-0.28731599 -0.034267418 -0.029871352
-0.27021995 -0.02733483 -0.030948786
-0.2589545 -0.021653127 -0.036982346
0.071268387 -0.025203031 -0.030087383
0.088789158 -0.034947462 -0.030789852
-0.25127894 -0.0092582507 -0.030845813
0.058580711 -0.0046985964 -0.025410933
0.062202096 -0.011578768 -0.032135129
-0.24172342 0.001052445 -0.031739801
-0.23244904 0.010472627 -0.031053308
0.051061831 0.010510753 -0.030947126
-0.22421683 0.027745595 -0.030243929
-0.21957055 0.037086464 -0.032151993
0.039891198 0.036954399 -0.0221048
0.042910479 0.029524788 -0.030977467
-0.21703096 0.049722906 -0.030665303
0.039639 0.042621948 -0.0221048
0.044653472 0.050015565 -0.030952269
-0.21585707 0.06949874 -0.030319229
0.039725531 0.077100098 -0.038163099
0.04336286 0.06902495 -0.029758027
-0.21497971 0.090016626 -0.030606274
0.039653201 0.080878399 -0.039107699
0.043016814 0.089880712 -0.029965989
-0.2266805 0.11005236 -0.030591248
-0.21994001 0.1000805 -0.0306063
0.053751387 0.10849207 -0.030611925
0.060523242 0.1178848 -0.033440098
-0.2469175 0.13517617 -0.030535595
-0.23640607 0.12418266 -0.029812803
0.071376331 0.12815307 -0.030650292
-0.26165143 0.15188588 -0.030856311
-0.25826514 0.14214846 -0.030039506
0.077969976 0.14750241 -0.029139126
0.082629077 0.15463158 -0.0362739
-0.26447192 0.16872677 -0.030606272
0.079290502 0.16116966 -0.023049399
0.090099819 0.16867317 -0.030232729
0.1084 0.17499039 -0.036200624
0.12629999 0.17678636 -0.037667319
-0.28073698 0.19848201 -0.039107699
-0.27007347 0.18988685 -0.030471789
0.098244302 0.182896 -0.023469834
0.11063626 0.18829864 -0.026148461
0.13027847 0.19019644 -0.030511169
0.145971 0.19244242 -0.036248937
-0.2854996 0.21355604 -0.038129341
-0.27433726 0.21008244 -0.029614657
0.11586601 0.202732 -0.020114001
0.13200191 0.21042344 -0.023938844
0.14907405 0.21194021 -0.033307482
-0.28647307 0.23109367 -0.036214605
-0.27655673 0.23050606 -0.026369397
0.13263527 0.23142883 -0.023894241
0.14937624 0.23092052 -0.033204541
-0.28529838 0.24651568 -0.037379406
-0.27673528 0.25175554 -0.028173156
0.11471334 0.2527965 -0.023660829
0.13054018 0.25077698 -0.029178562
0.14676999 0.24825381 -0.0355535
-0.2808781 0.2748659 -0.024165763
-0.27728632 0.26966625 -0.032444704
0.1105298 0.27203399 -0.028517034
0.12688719 0.26540911 -0.036708679
-0.27586851 0.29066843 -0.03029255
0.096330702 0.29374713 -0.029434154
0.10366783 0.2844187 -0.032813244
-0.27174267 0.31020477 -0.030689644
0.090240687 0.31061447 -0.030429816
-0.26426333 0.32693386 -0.031692814
-0.25676012 0.33586985 -0.028380638
0.077441059 0.33607432 -0.029132372
0.083487503 0.32723537 -0.031367108
-0.24776749 0.3494426 -0.031958763
-0.23883234 0.35833701 -0.026265534
0.068638645 0.34953231 -0.030931918
-0.22953911 0.36904201 -0.030955164
-0.21886118 0.37790397 -0.026896715
0.052581757 0.37244996 -0.030852688
0.062143888 0.36270019 -0.029080369
-0.20766628 0.3885223 -0.031338856
-0.19861799 0.398265 -0.023521699
0.032888733 0.39149523 -0.030933112
0.042176615 0.38226762 -0.028941829
-0.20084779 0.4025422 -0.034069829
-0.19146284 0.41219726 -0.030215347
0.013150662 0.41525745 -0.030135732
0.02494573 0.40546778 -0.030606268
-0.18227538 0.42242959 -0.032310948
-0.16925532 0.43020257 -0.030140573
-0.1547754 0.43658501 -0.0301357
-0.024840048 0.43810925 -0.028126026
-0.010777269 0.42834413 -0.03043694
0.0033638405 0.42203939 -0.031562287
-0.14565706 0.44389436 -0.031280376
-0.12939619 0.44974196 -0.030732218
-0.10930604 0.4537566 -0.030525953
-0.08958178 0.45370281 -0.030543305
-0.069689043 0.45067629 -0.030529581
-0.049759187 0.44698051 -0.030179646
-0.032989793 0.4424437 -0.032399856
-0.36798835 -0.48714703 -0.015325062
-0.35020536 -0.49066892 -0.0098619843
-0.33029288 -0.49167368 -0.010585389
-0.31062242 -0.49009141 -0.010769557
-0.29103449 -0.49128523 -0.010936782
-0.27095982 -0.49377888 -0.010751131
-0.25040451 -0.49189091 -0.010616314
-0.23732819 -0.48366708 -0.0041972273
0.028942715 -0.48890463 -0.010121213
0.049294341 -0.49172962 -0.010781892
0.069108471 -0.49071482 -0.010769554
0.089086823 -0.49156481 -0.010852333
0.10878171 -0.4925341 -0.010769557
0.13134228 -0.49337283 -0.0090800291
0.14776897 -0.49041429 -0.011723648
-0.36966041 -0.4696542 -0.015110879
-0.35400328 -0.46894005 -0.0055031646
-0.24350338 -0.46827403 -0.014881456
-0.23758984 -0.469556 -0.0051698694
0.018859621 -0.46888122 -0.001876542
0.025089297 -0.46888763 -0.011661875
0.13796706 -0.46854791 -0.0035595272
0.14938962 -0.46983305 -0.012462831
-0.364333 -0.45206124 -0.015633857
-0.35293832 -0.44908178 -0.0063821138
-0.24249935 -0.4483968 -0.012388003
-0.23846731 -0.45328432 -0.0045890696
0.025814774 -0.449063 -0.010720013
0.13101357 -0.44787636 -0.010205087
0.14439479 -0.45535982 -0.014879849
-0.36163101 -0.43939099 -0.019270999
-0.34778595 -0.42887083 -0.010735249
-0.33896101 -0.42354 -0.00065299869
-0.24384771 -0.42957267 -0.010592466
0.032147173 -0.43061507 -0.0094744861
0.04420872 -0.42476332 -0.017633202
0.097253829 -0.42165068 -0.0183264
0.10985515 -0.42995554 -0.010872358
0.1206838 -0.43908119 -0.01246985
-0.34332687 -0.40978342 -0.012305877
-0.33867401 -0.40712258 -0.0027895079
-0.24118322 -0.41675067 -0.010769566
-0.23489624 -0.40773794 -0.010726033
0.019341201 -0.40181467 -0.0032127535
0.030274928 -0.40880924 -0.010354839
0.045394503 -0.41444108 -0.017443541
0.096016847 -0.41454837 -0.017583651
0.10696316 -0.40816069 -0.0095604779
-0.3440105 -0.38929355 -0.010851058
-0.33848801 -0.398036 -0.00226817
-0.2316311 -0.38938034 -0.010655071
0.015650995 -0.38792738 -0.0088094901
0.023538062 -0.39444545 -0.015820177
0.11527829 -0.38966951 -0.010611718
0.120395 -0.3823145 -0.00226817
-0.34707555 -0.36972985 -0.010753519
-0.22894847 -0.36964038 -0.010630894
0.0090678344 -0.36971062 -0.010761146
0.11844874 -0.37642738 -0.013986781
0.12276447 -0.36812779 -0.009376524
-0.35145423 -0.34968269 -0.010698576
-0.22760913 -0.34928858 -0.010162367
0.003077205 -0.35008672 -0.010841974
0.12893267 -0.34996113 -0.010597005
-0.35373497 -0.32984701 -0.010430447
-0.22790116 -0.33008257 -0.0098551894
-0.00084598991 -0.32813519 -0.012508513
0.00043583737 -0.33380285 -0.0075579192
0.13526578 -0.33006412 -0.011130674
-0.35485888 -0.31021261 -0.010758471
-0.22818214 -0.31063676 -0.010370708
-0.00097547169 -0.31498337 -0.014750446
0.001905998 -0.30832589 -0.0090607367
0.13835075 -0.31055021 -0.011272606
0.1402165 -0.30593699 -0.00226817
-0.35462737 -0.29052821 -0.010843697
-0.22944719 -0.29058063 -0.0099732513
0.0082660588 -0.29014659 -0.010980208
0.13901579 -0.2893908 -0.010959364
0.140541 -0.297436 -0.0093526151
-0.35225925 -0.27025983 -0.010490432
-0.24384141 -0.26484069 -0.0049871616
-0.23410742 -0.27192217 -0.01187263
0.015834292 -0.27281666 -0.011005709
0.022137087 -0.26283744 -0.01041533
0.13382171 -0.27056813 -0.011052939
-0.34653878 -0.25257692 -0.012229798
-0.33522552 -0.24452721 -0.0059083882
-0.26580194 -0.24336509 -0.0047821724
-0.25215286 -0.25127146 -0.01089772
-0.23883234 -0.25801367 -0.017907033
0.029936349 -0.25056779 -0.010748043
0.11514995 -0.2472346 -0.0058625373
0.12339679 -0.25307053 -0.012438549
-0.34097099 -0.239342 -0.017650301
-0.32960278 -0.2347966 -0.012643154
-0.31081685 -0.22960471 -0.0099655865
-0.29048154 -0.23054408 -0.0075991796
-0.27042907 -0.23113893 -0.01119172
-0.2574093 -0.23003587 -0.018375022
0.031574771 -0.23038776 -0.0095853144
0.11223258 -0.23041898 -0.0079359999
0.12107321 -0.23335998 -0.01804303
-0.30949324 -0.21117572 -0.015440105
-0.29084229 -0.21045856 -0.0093812235
-0.27010968 -0.21109381 -0.0084100906
-0.25141069 -0.21052174 -0.008728941
-0.23213148 -0.20657413 -0.011365314
-0.21679179 -0.20453256 -0.017196868
0.016342431 -0.20703512 -0.015806114
0.025515972 -0.2127526 -0.0083676027
0.1108742 -0.21147312 -0.0097826691
0.120117 -0.202503 -0.0186684
-0.32214701 -0.18550001 -0.018033868
-0.31028429 -0.19117483 -0.010081911
-0.29536164 -0.19459473 -0.0022420555
-0.22523202 -0.19741091 -0.0039796331
-0.20861551 -0.19136697 -0.010080747
-0.19461712 -0.18304004 -0.012444083
-0.00173685 -0.18267649 -0.0178541
0.009120835 -0.19101013 -0.010527468
0.020480249 -0.19915751 -0.0036850451
0.11419338 -0.19375752 -0.0058038444
0.12529588 -0.18894446 -0.013985217
-0.32589284 -0.16970406 -0.014311536
-0.31490153 -0.17245112 -0.005224782
-0.18481766 -0.17558551 -0.0085879518
-0.17367844 -0.16611655 -0.011984046
-0.0060414998 -0.17013212 -0.011791771
0.00233194 -0.17817524 -0.0043934975
0.11658601 -0.17888767 -0.0012034195
0.12834099 -0.17180292 -0.0106155
-0.32786793 -0.14972401 -0.011179605
-0.31723467 -0.1571635 -0.0023247802
-0.16336755 -0.15551761 -0.0096975425
-0.15533736 -0.14545606 -0.011681525
-0.023557061 -0.14454746 -0.014794183
-0.014256252 -0.15293168 -0.0082482155
0.13284656 -0.15048301 -0.011027419
-0.32799721 -0.12874109 -0.010842165
-0.1460661 -0.13439474 -0.009562199
-0.13397877 -0.1244785 -0.012386625
-0.045781471 -0.12246245 -0.011880038
-0.031007089 -0.12970333 -0.0099060638
-0.0191001 -0.13590801 -0.001807675
0.1328603 -0.12898286 -0.010813485
-0.32635057 -0.10901527 -0.010679715
-0.31912401 -0.1019025 -0.000422716
-0.12525104 -0.11403984 -0.0088489577
-0.11432067 -0.10496883 -0.012277529
-0.069586046 -0.10878659 -0.011130227
-0.055060655 -0.11801819 -0.0093468297
0.13061206 -0.10901851 -0.010546659
-0.32278875 -0.092015475 -0.014039338
-0.31840566 -0.085930102 -0.0069556232
-0.10469209 -0.096999928 -0.0093705393
-0.089729898 -0.095867075 -0.010767243
-0.077703908 -0.098253995 -0.013249144
0.11910875 -0.082774274 -0.0029766075
0.12587979 -0.089808136 -0.011454708
-0.320279 -0.077815101 -0.019270999
-0.31437114 -0.06935434 -0.010456626
0.11564348 -0.067770928 -0.0075575607
0.12216158 -0.072910488 -0.015573563
-0.30538696 -0.055468876 -0.01113982
-0.29550999 -0.046733744 -0.0098594828
0.075813919 -0.042046014 -0.0041493499
0.090618476 -0.044967718 -0.0081151947
0.10543083 -0.053637963 -0.012580146
-0.28691247 -0.034716755 -0.012287535
-0.27020961 -0.028270904 -0.010818889
-0.259222 -0.020907827 -0.0065188296
0.057270419 -0.02412308 -0.0074044093
0.069038771 -0.031559344 -0.012021575
0.086351186 -0.038107201 -0.016592348
-0.25061792 -0.010374413 -0.011168622
-0.239777 -0.00130209 -0.00378963
0.054622199 -0.010049725 -0.010762302
-0.24181068 0.0010423262 -0.0173818
-0.23093787 0.0096894652 -0.010419039
0.047050811 0.0098460624 -0.010835058
-0.22503129 0.027189758 -0.011529755
-0.21897939 0.0357931 -0.008289977
0.038445927 0.033105403 -0.0096917823
0.041996285 0.023636185 -0.012064163
-0.21719892 0.049693398 -0.010753338
0.03845375 0.045895889 -0.0096893096
0.042329356 0.055401336 -0.012198742
-0.21620846 0.069889933 -0.010635634
0.04243942 0.06972868 -0.010359026
-0.21320947 0.089171916 -0.010651481
0.042030051 0.089451477 -0.010744651
-0.22452199 0.11265755 -0.011787221
-0.21776776 0.10331856 -0.0089984322
0.051435485 0.10995709 -0.010274976
-0.24806024 0.13649581 -0.011355007
-0.23476434 0.1272409 -0.01046551
0.059907898 0.120552 -0.019270999
0.07056202 0.12695442 -0.010686207
-0.26065725 0.15314075 -0.019270999
-0.25676051 0.1485282 -0.0097420458
0.075232916 0.14887248 -0.010840574
-0.26193503 0.17156035 -0.01300529
-0.25836572 0.1668295 -0.0088032102
0.077988788 0.16599049 -0.0090307957
0.083984844 0.1742326 -0.014951054
-0.26531726 0.18981174 -0.010908619
0.0796251 0.180062 -0.00226817
0.089411132 0.1899562 -0.0085633546
0.10296158 0.196052 -0.017088417
-0.27051529 0.21128599 -0.010647165
0.093213864 0.21207355 -0.0045424802
0.1084988 0.21163532 -0.015137921
0.12255538 0.21407622 -0.018988039
-0.27479729 0.23125266 -0.010405347
0.093914054 0.23012598 -0.004067291
0.10883327 0.23122236 -0.014236196
0.12208642 0.23005851 -0.019146448
-0.28040525 0.24949023 -0.0107695
-0.27751955 0.25103599 -0.010689497
0.09653756 0.25179359 -0.0044911816
0.10518605 0.2502231 -0.014202458
-0.28083941 0.27187759 -0.018704239
-0.27576375 0.27024394 -0.010042251
0.095440097 0.2715666 -0.0076422384
0.1025288 0.26828778 -0.016882313
-0.27351707 0.29019409 -0.010485794
0.091860287 0.2904399 -0.010714671
-0.26874822 0.31044182 -0.010761236
0.077789396 0.31750202 -0.00226817
0.087329738 0.31024435 -0.011037079
-0.26298383 0.32458374 -0.011674351
-0.25427699 0.33434057 -0.010270026
0.075761609 0.33342767 -0.0079117939
0.083005801 0.32657841 -0.014011057
-0.24574471 0.34911382 -0.011668082
-0.23892227 0.35714531 -0.0073179239
0.058306701 0.358592 -0.0036850451
0.068992071 0.34976256 -0.011171605
-0.23043537 0.36886606 -0.011918191
-0.21887153 0.37829688 -0.0079273172
0.052707173 0.37064266 -0.0094759027
0.062036622 0.36330545 -0.014472053
-0.20966576 0.39001238 -0.011109829
-0.19726999 0.39911032 -0.016437201
0.031750176 0.39165869 -0.010187802
0.042846877 0.38268149 -0.01197843
-0.200104 0.40050435 -0.0079357168
-0.18881989 0.40920335 -0.010277265
-0.17803724 0.4192605 -0.014311843
-0.0029513401 0.41904202 -0.012763004
0.0107853 0.41256538 -0.010250453
0.023325749 0.40319315 -0.013701614
-0.16839007 0.42596698 -0.010657891
-0.14971371 0.43512061 -0.010245908
-0.13776 0.43961167 -0.0069911331
-0.046088211 0.43788925 -0.0091816746
-0.030095482 0.43458465 -0.010931498
-0.011356107 0.42555952 -0.010110619
0.00109696 0.42072499 -0.019270999
-0.14286101 0.44159541 -0.01813402
-0.12841056 0.44399595 -0.010957093
-0.10948352 0.44687653 -0.010567245
-0.089710303 0.44873694 -0.010578997
-0.069708005 0.44671679 -0.010772313
-0.053889431 0.44283506 -0.012108848
-0.34317586 -0.48642939 0.0021589454
-0.33028242 -0.4895561 0.0093032941
-0.31050196 -0.49110413 0.0092936996
-0.29075572 -0.49033788 0.00906712
-0.27073643 -0.49247515 0.0090836771
-0.25049764 -0.49586442 0.0090080863
-0.23340733 -0.48734647 0.010026162
0.014828896 -0.48627794 0.010607341
0.029910909 -0.49222985 0.0093739145
0.049271788 -0.4908877 0.009067121
0.069036148 -0.49115235 0.0092778681
0.089319587 -0.4923107 0.0094478074
0.11010318 -0.49318025 0.0099906297
0.12700929 -0.49031353 0.0073250253
-0.34425265 -0.46900681 0.0031023237
-0.33347958 -0.46875805 0.013289896
-0.23232304 -0.46889636 0.0092575056
0.013578396 -0.46873209 0.0089898696
0.11799227 -0.4678508 0.016922055
0.12730016 -0.46901304 0.0073971744
-0.34394711 -0.4483698 0.0033478418
-0.33323088 -0.44962579 0.013723094
-0.24191843 -0.44213101 0.0081225131
-0.23688757 -0.45124993 0.0093202954
0.015980953 -0.44935057 0.0092711449
0.02053085 -0.44173402 0.00056570797
0.11699636 -0.44707954 0.013006828
0.12364639 -0.45116818 0.0047194911
-0.34224299 -0.43558401 0.0011872648
-0.33061501 -0.42845482 0.0092583783
-0.31790128 -0.42779103 0.018375209
-0.24649067 -0.42932406 0.0094699375
0.018096957 -0.43713546 0.013115407
0.023488635 -0.42785719 0.0082093589
0.11060248 -0.42962071 0.009346134
-0.32998821 -0.40994117 0.0080332318
-0.31868112 -0.41043401 0.017852277
-0.24555384 -0.41040617 0.011029835
-0.23836909 -0.40548503 0.0023989805
0.015714906 -0.40472946 0.01064472
0.023412123 -0.41369507 0.007444948
0.11368988 -0.40941238 0.0090696355
-0.3418276 -0.38552007 0.0029272074
-0.33263326 -0.39045212 0.011688272
-0.31912401 -0.398036 0.0199777
-0.24453601 -0.39004976 0.013558108
-0.23785159 -0.38967621 0.0036727102
0.010577765 -0.38952297 0.0090876566
0.11854747 -0.39477247 0.0057332311
0.1226777 -0.38648617 0.011304264
-0.34335029 -0.36899021 0.0040125493
-0.33609784 -0.37106884 0.014247515
-0.24468899 -0.36894193 0.015334946
-0.23640975 -0.36939433 0.0046515046
0.006131995 -0.36986908 0.0090570375
0.12840699 -0.36947981 0.0095207347
-0.34504271 -0.35021353 0.0063066087
-0.33736274 -0.35083506 0.015527815
-0.24507852 -0.35014468 0.01574146
-0.23617101 -0.35010415 0.0059597916
0.0035659925 -0.34982067 0.0093312114
0.13333566 -0.34973875 0.0091250148
-0.3462472 -0.3299031 0.0070748832
-0.33704999 -0.33052453 0.017229188
-0.24494614 -0.32980639 0.016339466
-0.23626842 -0.33033925 0.0060576131
0.0035290299 -0.33014503 0.0095090615
0.13710509 -0.33032516 0.0091131432
-0.34674463 -0.31003451 0.0066178166
-0.33690006 -0.31055263 0.01637773
-0.24694984 -0.30955794 0.014802079
-0.23571655 -0.31007433 0.0041231052
0.0063895038 -0.31018773 0.0094207441
0.13828246 -0.31045482 0.0098171541
0.1404095 -0.30806249 0.0012741535
-0.34632957 -0.29033804 0.0061516366
-0.33654645 -0.28879255 0.016774472
-0.26317 -0.28279433 0.018613234
-0.2506218 -0.28997886 0.013368343
-0.23783281 -0.29247653 0.0037820272
0.012555421 -0.29026049 0.0086080199
0.13761383 -0.29061043 0.0097298324
0.140305 -0.28893399 0.001982599
-0.34420404 -0.27183679 0.0043871119
-0.3336539 -0.26879168 0.014546704
-0.31912401 -0.26201299 0.019203199
-0.2873852 -0.26290989 0.018751601
-0.26882502 -0.26844242 0.015117896
-0.25189847 -0.27087197 0.0069939918
-0.23847501 -0.27807131 0.0010211458
0.017942462 -0.2760359 0.0044750217
0.02630193 -0.2681385 0.010858226
0.115803 -0.26103801 0.017568501
0.13058116 -0.26995185 0.0087095238
-0.34099102 -0.25776201 0.0004470945
-0.32891881 -0.25230333 0.0068851216
-0.31024137 -0.25068519 0.012590041
-0.29105499 -0.2501471 0.011251358
-0.27153933 -0.25107613 0.0066762995
-0.25689468 -0.25691181 0.0026770462
0.035189744 -0.25441876 0.0051606493
0.047348171 -0.24898595 0.011737444
0.069108471 -0.24534078 0.015205859
0.089760602 -0.24706718 0.012671477
0.10850401 -0.25165275 0.0083370199
0.12167192 -0.2576046 0.0043137535
-0.30991399 -0.23820598 0.0018092785
-0.29361957 -0.23840411 0.0018251664
0.038307801 -0.23404525 0.00057829922
0.049367223 -0.23083147 0.0083804503
0.069285594 -0.23101813 0.013592797
0.089022659 -0.23060785 0.009071758
0.10178963 -0.23112455 0.0018259342
-0.26598975 -0.20161951 0.00035856676
-0.24922317 -0.20136867 0.0010380051
-0.23694301 -0.20151401 0.00056570797
0.033668403 -0.20814626 0.0039753714
0.049131803 -0.21123636 0.010062737
0.06923376 -0.2107719 0.012874193
0.0891743 -0.21059659 0.0081623811
0.101189 -0.21157442 0.001088671
-0.30212101 -0.180777 0.00056570797
-0.28853881 -0.18874235 0.0036972538
-0.2711975 -0.19096985 0.0069822604
-0.25085792 -0.191386 0.010570252
-0.23171008 -0.18987261 0.0089781648
-0.21385294 -0.18491697 0.0060337284
0.014931615 -0.18629184 0.0032122135
0.029577298 -0.19099399 0.010287822
0.04801707 -0.19546539 0.016472679
0.068689831 -0.19593473 0.017063364
0.089958407 -0.19155297 0.013653995
0.10502123 -0.18927182 0.005226884
-0.30604824 -0.16916655 0.0032708365
-0.29089174 -0.17113112 0.010997596
-0.27235484 -0.17703687 0.015958253
-0.25866935 -0.17888767 0.018208733
-0.22730842 -0.17893039 0.017566999
-0.20579676 -0.17527802 0.013105346
-0.19063063 -0.16831762 0.0075450893
-0.17537479 -0.1620822 0.0016678208
-0.0017965685 -0.16492239 0.0016992207
0.0094809709 -0.17075199 0.010474288
0.024647376 -0.17731275 0.016862465
0.089182697 -0.17601301 0.017424747
0.10881191 -0.17090765 0.009796124
0.1214854 -0.1653492 0.0016477344
-0.32137501 -0.14299299 0.00044767061
-0.30928221 -0.1490434 0.0078224782
-0.29303128 -0.15455484 0.017200358
-0.18347991 -0.15709099 0.014870951
-0.16966468 -0.14881194 0.0092393644
-0.15772833 -0.14114065 0.001510302
-0.0066536679 -0.1488352 0.0081006754
0.0046510487 -0.15535605 0.015287093
0.1115009 -0.15060627 0.014214577
0.1231528 -0.1484028 0.0041899448
-0.32082084 -0.12740682 0.00056570797
-0.31287238 -0.129125 0.010479996
-0.1640369 -0.13510345 0.016749064
-0.15062861 -0.12847038 0.0080781654
-0.13776 -0.120807 0.00056570797
-0.042543821 -0.1210134 0.0034175392
-0.029563513 -0.1238104 0.00776598
-0.014428466 -0.13245343 0.010487819
0.11449926 -0.12841152 0.014348674
0.1236065 -0.12953217 0.0043129101
-0.32048851 -0.1160715 0.00056570797
-0.31311512 -0.1092649 0.010336221
-0.14452973 -0.11656208 0.013822359
-0.12986346 -0.10826373 0.0093533341
-0.11158309 -0.10098429 0.008500346
-0.088396706 -0.10181303 0.012707749
-0.06991449 -0.10503837 0.0086308336
-0.050887555 -0.11430161 0.010544045
-0.036451098 -0.11811225 0.016860049
0.11415631 -0.10816554 0.013106749
0.12204213 -0.1104039 0.0032115583
-0.31000471 -0.089026816 0.0094695156
-0.12349474 -0.09767203 0.0173162
-0.10924984 -0.097946994 0.0093034888
-0.091616899 -0.098826267 0.0035486559
0.11207458 -0.088798799 0.010138824
0.12131425 -0.095020927 0.001141204
-0.3071422 -0.070339672 0.00744589
-0.2966091 -0.064550132 0.015570555
0.093063749 -0.064148895 0.013883566
0.10765374 -0.070312068 0.0077278344
-0.30308482 -0.05694272 0.0029326195
-0.2900525 -0.050560307 0.0086739203
-0.27178261 -0.042865846 0.016816046
0.057091907 -0.044990081 0.01552041
0.069551617 -0.049305439 0.01023864
0.087973796 -0.053164121 0.0067880955
0.103114 -0.059815601 0.00056570797
-0.28187302 -0.038705233 0.0033995092
-0.26975575 -0.034542393 0.0066615799
-0.25420281 -0.027602565 0.012470108
0.053406809 -0.029353367 0.0096785277
0.06400758 -0.037392378 0.0012005924
-0.24690212 -0.014630273 0.0068220347
-0.23421571 -0.0061682099 0.01199671
0.048059229 -0.0098060789 0.0094967112
-0.22548999 0.0099143591 0.0090550659
0.036663633 0.014732832 0.01409966
0.043545533 0.0080002248 0.0070917984
-0.22396909 0.023254454 0.0066493973
-0.21570237 0.032076512 0.010383672
0.034208585 0.02966506 0.0093052415
-0.21357609 0.049652237 0.0092791691
0.034857973 0.049545065 0.009325237
0.040381499 0.058208 0.001982599
-0.21222834 0.069473289 0.0088972589
0.037709936 0.06974259 0.011231191
0.040571369 0.068693094 0.0016469958
-0.20954907 0.089041181 0.0093675423
0.038792614 0.089713246 0.011308797
0.040728576 0.088018321 0.0029946805
-0.22255376 0.11667375 0.0030452826
-0.21474221 0.10858002 0.010227824
0.038966749 0.1014235 0.015443176
0.048851077 0.1122338 0.0088229198
0.061637517 0.11954319 0.010612833
-0.24564461 0.1364066 0.0080366479
-0.23169859 0.12882006 0.0092930356
-0.21994001 0.120662 0.017568501
0.069458619 0.12831409 0.0085558873
-0.25075242 0.1499483 0.009549533
0.071494877 0.14884205 0.0090907961
-0.26129463 0.17429329 0.0047074254
-0.25714591 0.1669267 0.010887914
0.075033292 0.16876018 0.0090546282
-0.26470962 0.19018684 0.0089330003
-0.25961399 0.18147901 0.01832605
0.077095129 0.18856272 0.010980866
0.081428245 0.19557665 0.0032698018
-0.26891139 0.21137385 0.0088407807
0.077872865 0.20592025 0.015831586
0.083399951 0.21206141 0.0077633183
-0.27124375 0.23071904 0.009837023
0.087302104 0.23089823 0.0091960458
-0.27575463 0.25069121 0.0091201821
0.089775398 0.25066569 0.0091886623
-0.27405405 0.27038279 0.0089300415
0.086894542 0.27079892 0.0091417246
-0.26748219 0.29008326 0.009263983
-0.25961399 0.29908201 0.017236499
0.0797159 0.29908201 0.017568501
0.086561091 0.29019088 0.0095746424
-0.26397175 0.30859816 0.0058435299
-0.25614136 0.31318882 0.014181435
0.078451492 0.31388089 0.011376146
0.083917879 0.30658281 0.0060086367
-0.26066801 0.321753 0.00056570797
-0.25049663 0.32993448 0.008918603
0.075231902 0.33019486 0.0087043382
-0.24369301 0.34364283 0.0060159862
-0.23563004 0.35236737 0.010577395
0.057520531 0.35695341 0.011078598
0.066001728 0.3483485 0.0081567746
-0.22664675 0.36587676 0.0073697618
-0.21709162 0.37412944 0.010519266
0.051715072 0.36987096 0.0087572578
-0.20751864 0.3885918 0.0080850003
-0.1962256 0.39763787 0.013223707
0.030107561 0.39346978 0.0087363478
0.042013329 0.38276148 0.0080681276
-0.18750256 0.40540358 0.0081164427
-0.17331387 0.41309467 0.01149368
-0.0032907019 0.41715372 0.012673777
0.0096907411 0.40757447 0.0092761191
-0.16492821 0.42378899 0.0071020639
-0.14908798 0.43122086 0.0090706404
-0.13028175 0.43688709 0.012042139
-0.11439221 0.43771869 0.013722655
-0.067481309 0.4392218 0.017197629
-0.048357472 0.43624321 0.010476354
-0.030138424 0.43287337 0.0091201654
-0.012234451 0.42487654 0.0083520757
-0.1268606 0.44161159 0.0031680192
-0.10735232 0.44307461 0.0070870975
-0.089935347 0.44413918 0.0087194117
-0.070002079 0.4437229 0.0071327644
-0.056209028 0.44174322 0.0039305082
-0.32197568 -0.4859288 0.0219783
-0.30998915 -0.48949209 0.029261677
-0.2907857 -0.49305829 0.028916094
-0.27072039 -0.49511403 0.029123487
-0.25090152 -0.49591231 0.028848246
-0.2335975 -0.48751447 0.028362248
0.0099036396 -0.48874977 0.029646745
0.029506473 -0.49135187 0.028986106
0.049160704 -0.4908179 0.028726712
0.069367498 -0.49211794 0.02925083
0.089824155 -0.49324664 0.029815258
0.10673815 -0.48928916 0.026150107
-0.32346702 -0.4687396 0.023437189
-0.31223732 -0.46914703 0.0333273
-0.23346335 -0.46902481 0.029781414
0.0057443003 -0.46902415 0.029010968
0.097446598 -0.47596598 0.038809352
0.10851226 -0.46938923 0.029182073
-0.32318085 -0.45037812 0.022499636
-0.31044355 -0.44925109 0.0319633
-0.29623532 -0.44468486 0.038446154
-0.26386452 -0.440543 0.039596699
-0.24712764 -0.44468325 0.032390937
-0.23723422 -0.45299023 0.027062012
0.0094403559 -0.44905484 0.028890014
0.10934995 -0.44925809 0.029317642
-0.32195801 -0.437709 0.020144699
-0.30904123 -0.42998576 0.025238199
-0.29078123 -0.42938814 0.032066409
-0.27076033 -0.42949435 0.033716943
-0.25467536 -0.43081388 0.026083503
0.017404208 -0.43033388 0.030084588
0.020284401 -0.42637402 0.020969162
0.09911935 -0.4362925 0.037405301
0.10593936 -0.42897305 0.028503304
-0.30897805 -0.40916765 0.024444455
-0.29080638 -0.40951648 0.030565167
-0.27090481 -0.40934178 0.03094493
-0.25558206 -0.40968919 0.023990419
0.015692547 -0.40947738 0.028670982
0.11323559 -0.40936235 0.028880687
-0.32425371 -0.38632601 0.021719191
-0.31042543 -0.38938594 0.028894613
-0.29091915 -0.38908818 0.03405707
-0.27019542 -0.38969892 0.032471497
-0.25473762 -0.38984168 0.024437502
0.010638504 -0.3895956 0.02909404
0.11885447 -0.39533082 0.031096362
0.12241329 -0.38718265 0.027954048
-0.3261452 -0.36866796 0.023156513
-0.31047085 -0.36976859 0.030445054
-0.29088983 -0.36987481 0.033915926
-0.2708272 -0.36972418 0.03211474
-0.25561765 -0.36969766 0.024172949
0.0092921415 -0.36981571 0.029522961
0.12552235 -0.36963922 0.029133258
-0.32729921 -0.34948847 0.023842312
-0.31063548 -0.35005367 0.030839464
-0.29096285 -0.34968415 0.033590075
-0.27089867 -0.34986907 0.031175692
-0.25458759 -0.34917429 0.024046311
0.008877187 -0.34951431 0.029036887
0.128282 -0.34985754 0.029008087
-0.32695973 -0.32976675 0.024487698
-0.31060469 -0.33002445 0.031671226
-0.29079103 -0.33002442 0.033937763
-0.270937 -0.33003122 0.030441402
-0.25542119 -0.32968095 0.023674509
0.010685848 -0.32985759 0.029231589
0.13016729 -0.32996416 0.029670721
-0.32785675 -0.30987778 0.024450006
-0.31037998 -0.31007436 0.031896051
-0.2904239 -0.31018436 0.032615799
-0.2709887 -0.31019464 0.027742738
-0.25719666 -0.31133729 0.021979405
0.014206856 -0.31135467 0.028156599
0.021792937 -0.30552149 0.036466114
0.13001524 -0.31029668 0.029585429
-0.32718566 -0.29107085 0.02422286
-0.31067178 -0.2904025 0.031021118
-0.29071066 -0.29039848 0.029225849
-0.27118534 -0.29095656 0.024140675
-0.25961399 -0.29903299 0.0204024
0.017017493 -0.29480359 0.0228166
0.026598942 -0.28863531 0.03125304
0.12898773 -0.29028171 0.029167615
-0.32577956 -0.27330619 0.022834236
-0.31052184 -0.27051681 0.025870793
-0.291565 -0.2721079 0.023608577
-0.27563435 -0.27502301 0.021642445
0.032858986 -0.27410397 0.026528347
0.04761776 -0.26665142 0.031998981
0.068165854 -0.26349473 0.037325926
0.088471793 -0.26278192 0.035141695
0.11139246 -0.26721066 0.031389829
0.12426426 -0.27503768 0.025493613
0.053740148 -0.25635722 0.023726013
0.069387764 -0.25398049 0.027234979
0.089223184 -0.25515729 0.025850121
0.10465983 -0.25779545 0.022573119
-0.244028 -0.1808795 0.0204024
0.037936501 -0.182666 0.0202858
0.050627075 -0.18600787 0.02179241
0.069108464 -0.18628168 0.021712421
0.081577227 -0.18479142 0.02095302
-0.28033799 -0.162829 0.0204024
-0.26905927 -0.16722681 0.02310911
-0.25072345 -0.17059344 0.025085261
-0.23187381 -0.1699819 0.026890285
-0.21202619 -0.16744547 0.023462621
-0.19585299 -0.16200951 0.0204024
0.0187224 -0.16377366 0.021861434
0.03098527 -0.1696927 0.025603037
0.049529444 -0.17155702 0.028277915
0.069348447 -0.17142707 0.027198181
0.088132493 -0.16662723 0.02338621
0.10028 -0.161815 0.0204024
-0.28756386 -0.14607145 0.024531102
-0.27092248 -0.14972392 0.030606356
-0.25149429 -0.15069532 0.035587098
-0.23217063 -0.1531309 0.036463179
-0.20871381 -0.15249959 0.033097848
-0.19019157 -0.14831486 0.027375748
-0.17690849 -0.14157599 0.0204024
0.011320474 -0.14811683 0.025955502
0.029422751 -0.15019956 0.034180783
0.049053296 -0.15290913 0.035440948
0.068978079 -0.15061784 0.035310384
0.089336395 -0.15003742 0.030208874
0.10239682 -0.14826044 0.022372821
-0.30235529 -0.12639472 0.020740272
-0.29070106 -0.12900314 0.028800091
-0.27232778 -0.1303989 0.036382757
-0.25866935 -0.13638033 0.0397483
-0.20067081 -0.1339246 0.039243482
-0.18759066 -0.13108744 0.034458015
-0.1707954 -0.12793159 0.02795607
-0.15828466 -0.123156 0.021180967
-0.024342233 -0.120414 0.020578867
-0.0061301263 -0.12701026 0.023973223
0.0086559113 -0.12990569 0.034036677
0.02619643 -0.13410394 0.038354736
0.07572075 -0.137621 0.038631853
0.090246223 -0.12938425 0.034242757
0.10436514 -0.12901904 0.02343338
-0.3027074 -0.10886627 0.021555483
-0.29042223 -0.10894944 0.030085953
-0.27864128 -0.11227471 0.037997473
-0.16609383 -0.1119075 0.035620734
-0.15029566 -0.10767004 0.027505631
-0.13592651 -0.1043509 0.021508951
-0.10434927 -0.10265615 0.030779995
-0.089359149 -0.10691728 0.029687967
-0.069787875 -0.10523091 0.029337803
-0.050816379 -0.10344339 0.02778255
-0.030716868 -0.11121326 0.029851029
-0.010762201 -0.11391025 0.032167837
0.0058759074 -0.11412133 0.037797786
0.091747239 -0.10796638 0.033312708
0.10427349 -0.10993154 0.023827022
-0.30212399 -0.092420094 0.021673579
-0.29043311 -0.089363255 0.030952441
-0.27685317 -0.086316504 0.038758241
-0.1466056 -0.093837902 0.034612842
-0.13006659 -0.092191786 0.028934091
-0.11376899 -0.097181171 0.028408898
-0.047707632 -0.0981993 0.035943344
-0.038576499 -0.097651698 0.0391015
0.073745638 -0.083997957 0.038554784
0.089832619 -0.088966377 0.033748943
0.10236438 -0.090790935 0.023008378
-0.300513 -0.077815101 0.0204024
-0.28876486 -0.070137799 0.026718676
-0.27354729 -0.068429664 0.035758946
-0.25678 -0.060812201 0.039848849
0.037464201 -0.066007517 0.038182169
0.049841378 -0.066406339 0.033351261
0.069454461 -0.068892449 0.032406848
0.08826983 -0.071098074 0.026308883
0.10082266 -0.075850271 0.021898465
-0.2835305 -0.055593751 0.022722751
-0.27038425 -0.051283434 0.027763223
-0.25185263 -0.048623785 0.03310347
-0.23631355 -0.044436868 0.03860369
0.036021195 -0.048064709 0.037425306
0.048355661 -0.050126184 0.0283914
0.067800552 -0.057938196 0.021833863
0.080443703 -0.0594065 0.0204024
-0.24666214 -0.032326076 0.024635617
-0.23185584 -0.028654834 0.033278406
-0.21805115 -0.023028001 0.037767034
0.03421358 -0.02881754 0.03490334
0.045289438 -0.030715156 0.025992826
-0.2283984 -0.012919569 0.024357
-0.21461825 -0.008429951 0.033502519
0.0166829 -0.00065313117 0.0384022
0.031334624 -0.008728398 0.032255668
0.042696018 -0.013957997 0.02246649
-0.22067326 0.011450062 0.021110851
-0.21122171 0.0098451171 0.031571027
-0.2 0.0157008 0.037405301
0.017321855 0.0066171535 0.0363269
0.027933611 0.0099270148 0.027865618
-0.20708527 0.029813083 0.029071048
0.027824244 0.029928865 0.028991619
-0.20597796 0.049792111 0.02923999
0.02659828 0.050044548 0.029160626
-0.2055265 0.069940679 0.028670661
-0.199313 0.063875601 0.037405301
0.031456057 0.06952177 0.028817246
-0.20403568 0.088152312 0.027228378
-0.19832802 0.093630597 0.03547724
0.031767935 0.08955121 0.02905922
-0.20793666 0.1100296 0.028688896
-0.198861 0.100715 0.037405301
0.034150325 0.10705821 0.030546268
0.049036238 0.11644246 0.028573599
0.061821528 0.11921342 0.024045857
-0.24257444 0.13653328 0.02607001
-0.23072976 0.13088198 0.028868979
-0.21634999 0.12396429 0.032103661
0.058276735 0.13230094 0.035661407
0.063953452 0.12868428 0.026882987
-0.24469835 0.14908977 0.026126981
-0.23760331 0.14885716 0.035924695
0.058869701 0.14224 0.034571461
0.066296175 0.15024617 0.028202692
-0.25023347 0.16942988 0.029482767
-0.239777 0.163059 0.039260399
0.071907915 0.16893135 0.029549301
-0.26212344 0.1944335 0.023043621
-0.25627217 0.18846197 0.031336769
0.07655219 0.18979108 0.02921777
-0.26444441 0.21223283 0.027699329
-0.25889942 0.2060447 0.036238857
0.076993302 0.20827527 0.028290598
0.081167832 0.21771073 0.031001033
-0.26665878 0.23144196 0.028330209
-0.25935766 0.22524299 0.037405301
0.083657667 0.23156165 0.029284947
-0.26980004 0.25040188 0.029709287
0.085695185 0.25079009 0.029044567
-0.26812339 0.27087063 0.029257361
0.084069036 0.2705268 0.029069033
-0.2641525 0.2872251 0.027416242
-0.25780973 0.2960639 0.031339645
0.076785289 0.29164299 0.029534698
0.080876924 0.28292373 0.028498983
-0.2493636 0.3106375 0.028516667
-0.23883234 0.31797436 0.036894333
0.074921489 0.31053025 0.029551772
-0.24482022 0.3277472 0.025303181
-0.23654458 0.33317298 0.033786237
