ply
format ascii 1.0
comment PCL generated
element vertex 737
property float x
property float y
property float z
element camera 1
property float view_px
property float view_py
property float view_pz
property float x_axisx
property float x_axisy
property float x_axisz
property float y_axisx
property float y_axisy
property float y_axisz
property float z_axisx
property float z_axisy
property float z_axisz
property float focal
property float scalex
property float scaley
property float centerx
property float centery
property int viewportx
property int viewporty
property float k1
property float k2
end_header
-0.10680361 -0.48182601 -0.49039358
-0.087562405 -0.48182598 -0.48489603
-0.34738201 -0.463653 -0.49377599
-0.286973 -0.463653 -0.48859799
-0.2678915 -0.46466267 -0.4902142
-0.2484334 -0.4660762 -0.49075079
-0.23166461 -0.46849942 -0.48910442
-0.21192411 -0.4737497 -0.49266434
-0.19126578 -0.4737497 -0.49266434
-0.17060712 -0.4737497 -0.49266434
-0.14994682 -0.47374967 -0.48921952
-0.12935217 -0.47274002 -0.48933101
-0.110239 -0.47576901 -0.49415848
-0.087870441 -0.47576901 -0.49587902
-0.067222498 -0.47576898 -0.49243769
-0.050140701 -0.47274002 -0.48933101
-0.033067767 -0.46870136 -0.48977149
-0.012419879 -0.46769166 -0.48643267
0.0082244901 -0.46567234 -0.48665234
0.028879499 -0.463653 -0.48687199
0.0426872 -0.463653 -0.48687199
-0.380712 -0.44547999 -0.48191199
-0.36917239 -0.44911423 -0.48706323
-0.3532463 -0.45153707 -0.48621041
-0.33148202 -0.45153707 -0.48818907
-0.31070602 -0.45153704 -0.48934317
-0.29339349 -0.45153701 -0.495114
0.056325 -0.45153701 -0.481264
0.070175268 -0.45153701 -0.481264
0.11172233 -0.449518 -0.48148
-0.225003 -0.48182601 -0.46771601
-0.2104 -0.48182604 -0.47029305
-0.19054145 -0.48317227 -0.4710117
-0.16992766 -0.48317227 -0.4710117
-0.14927576 -0.48384535 -0.47094333
-0.12867023 -0.48384535 -0.47094333
-0.1080649 -0.48384535 -0.47094333
-0.087459728 -0.48384535 -0.47094333
-0.066946357 -0.48182604 -0.47115204
-0.050911635 -0.48182598 -0.46657071
-0.039458301 -0.48182601 -0.46428001
-0.32666999 -0.463653 -0.46616
-0.30743787 -0.46365303 -0.47207776
-0.28856337 -0.46499926 -0.47292486
-0.2677311 -0.46634546 -0.47278214
-0.25016999 -0.46971104 -0.47242701
-0.23468029 -0.47230729 -0.47313857
-0.21864 -0.47576901 -0.478672
-0.048868801 -0.47576901 -0.47637799
-0.032032635 -0.47349727 -0.472893
-0.012375035 -0.46903789 -0.47249901
0.0083802724 -0.47173035 -0.47221804
0.029022276 -0.47038412 -0.47236198
0.048786525 -0.46743929 -0.471807
0.070302702 -0.463653 -0.469612
0.091014363 -0.463653 -0.46961203
0.104822 -0.463653 -0.469612
0.13243766 -0.463653 -0.47651601
-0.37030801 -0.44547996 -0.46804032
-0.35225698 -0.45153707 -0.46741402
-0.33425203 -0.45153704 -0.470184
-0.31763101 -0.45153701 -0.47433901
0.11518849 -0.45153704 -0.46741402
0.13251534 -0.44951805 -0.46415851
0.146405 -0.44547999 -0.46457249
-0.41024536 -0.42124802 -0.46636018
-0.38944232 -0.43134466 -0.46950272
0.15108867 -0.43942201 -0.46866703
0.165961 -0.4357872 -0.46487123
0.181508 -0.42124799 -0.46356899
-0.46223 -0.40913299 -0.46480101
-0.44823134 -0.40913299 -0.46480098
-0.42874467 -0.41519102 -0.46651468
-0.41243768 -0.41519102 -0.47583267
-0.47158432 -0.392979 -0.468784
-0.449931 -0.397017 -0.47305402
-0.43588999 -0.397017 -0.47305399
-0.22729367 -0.48182598 -0.44595468
-0.21125901 -0.48182604 -0.45053604
-0.19054145 -0.48317227 -0.45040157
-0.16978477 -0.48519155 -0.45020232
-0.14900666 -0.48788399 -0.449931
-0.12842268 -0.48788399 -0.449931
-0.10783866 -0.48788399 -0.449931
-0.087254398 -0.48788399 -0.449931
-0.070100904 -0.48788401 -0.449931
-0.052974544 -0.4872109 -0.44999945
-0.032586303 -0.48182604 -0.45053598
-0.011970274 -0.48182604 -0.44710001
0.0086800195 -0.48317227 -0.45040402
0.025166219 -0.48303762 -0.4490428
-0.34393001 -0.463653 -0.44544899
-0.32925898 -0.46365303 -0.45148975
-0.30926755 -0.46499926 -0.45222044
-0.28808296 -0.46971104 -0.451747
-0.26746914 -0.46903789 -0.45181546
-0.24998598 -0.47173035 -0.45154703
-0.23479016 -0.47475934 -0.45353851
-0.0121614 -0.47576901 -0.458024
0.034296349 -0.47576901 -0.45286226
0.049718566 -0.47173035 -0.45154864
0.070345193 -0.46769169 -0.45195234
0.09103322 -0.4670186 -0.45201963
0.11074128 -0.46451846 -0.45029527
-0.37070838 -0.44790277 -0.44837999
-0.35364202 -0.45153704 -0.45079297
0.13352087 -0.44634527 -0.44912973
0.14871667 -0.44547999 -0.44260898
-0.4325757 -0.42124799 -0.44263399
-0.41146636 -0.42259419 -0.44948256
-0.38884068 -0.43605646 -0.44815975
0.15108867 -0.43942201 -0.45245865
0.16732778 -0.43740267 -0.44802877
0.18750286 -0.42730597 -0.44815075
-0.46223 -0.40913299 -0.45080164
-0.4488965 -0.41064748 -0.45152664
-0.4299095 -0.41519099 -0.4537015
0.19572 -0.40913299 -0.45780101
0.2082912 -0.4103446 -0.44648519
-0.48986864 -0.39600751 -0.44974852
-0.47450352 -0.397017 -0.45199132
0.21703701 -0.397017 -0.45199099
0.22978441 -0.39338279 -0.44813162
0.24532101 -0.39096001 -0.445555
0.26734999 -0.36672801 -0.44081801
-0.245619 -0.48182601 -0.42304799
-0.231875 -0.48182604 -0.42991996
-0.21125899 -0.48182604 -0.42991999
-0.19049066 -0.48384535 -0.42972887
-0.16959099 -0.48788399 -0.42934668
-0.14900666 -0.48788399 -0.42934665
-0.12791966 -0.49596134 -0.42858222
-0.10783867 -0.48788399 -0.42934668
-0.087254398 -0.48788399 -0.42934668
-0.070100904 -0.48788401 -0.42934665
-0.052947402 -0.48788399 -0.42934668
-0.032363199 -0.48788399 -0.42934668
-0.01184636 -0.4858647 -0.42953777
0.0087354798 -0.48519155 -0.42960146
0.029349174 -0.4858647 -0.42954013
0.043005805 -0.48182598 -0.42991999
-0.34886146 -0.46365303 -0.43065473
-0.33012199 -0.46365303 -0.43164101
-0.30876267 -0.46971104 -0.43106735
-0.28794721 -0.47105727 -0.43094221
-0.27026051 -0.47576901 -0.43049398
-0.253914 -0.47576901 -0.43135437
0.053223606 -0.47576901 -0.43049398
0.070418395 -0.47442278 -0.43062255
0.091046192 -0.46971104 -0.43106735
0.11172966 -0.46634546 -0.43138725
0.13243766 -0.463653 -0.42473701
0.146245 -0.463653 -0.42473701
-0.380712 -0.44547999 -0.42642599
-0.36902577 -0.45032558 -0.43151778
-0.359182 -0.45153701 -0.43625051
0.131116 -0.45153704 -0.43555802
0.15098965 -0.449518 -0.43067101
0.16370699 -0.4485085 -0.42614448
-0.43058184 -0.42124799 -0.4296746
-0.41040432 -0.43067154 -0.42780691
-0.39072916 -0.43682575 -0.42822242
0.17007539 -0.43942204 -0.42976719
0.18823054 -0.43471023 -0.4274326
0.2040495 -0.427306 -0.42637551
-0.44868425 -0.41216198 -0.4286499
0.21379519 -0.41397938 -0.43075323
0.22832733 -0.41115233 -0.42728448
-0.49296868 -0.39096001 -0.43149236
-0.47129032 -0.39499798 -0.431117
0.23575866 -0.397017 -0.43560967
0.25145125 -0.39171687 -0.430547
0.25983 -0.37884399 -0.43967101
0.27053124 -0.375815 -0.4293735
0.28681099 -0.36672851 -0.42666751
0.31009033 -0.36067101 -0.420138
0.29265052 -0.35461301 -0.43132252
0.30684048 -0.35461301 -0.427775
0.32457799 -0.35461301 -0.42067999
0.332661 -0.33643901 -0.42230499
-0.245619 -0.48182601 -0.41273999
-0.231875 -0.48182604 -0.40930396
-0.21125899 -0.48182604 -0.40930396
-0.19054145 -0.48317227 -0.40918255
-0.16973633 -0.4858647 -0.40893966
-0.14905268 -0.4872109 -0.40882164
-0.12829623 -0.48990333 -0.4085761
-0.10783867 -0.48788399 -0.40876263
-0.087254405 -0.48788399 -0.40876263
-0.070100904 -0.48788401 -0.40876266
-0.052947402 -0.48788399 -0.40876263
-0.032363199 -0.48788399 -0.40876263
-0.011801515 -0.4872109 -0.40882164
0.0087378407 -0.48519155 -0.4090021
0.029288977 -0.48317227 -0.4091813
0.043005802 -0.48182601 -0.41617599
-0.34997103 -0.46365303 -0.41179204
-0.33012199 -0.46365303 -0.41092902
-0.30897856 -0.46769169 -0.41056469
-0.28788108 -0.47173035 -0.41020358
-0.26903585 -0.47317272 -0.40909025
-0.25420085 -0.47576901 -0.40984598
0.050642624 -0.47576901 -0.40898561
0.070430197 -0.47576898 -0.40984598
0.091046192 -0.46971104 -0.41038764
0.11172601 -0.46971104 -0.41038764
0.13243768 -0.46365303 -0.41092902
0.14969701 -0.463653 -0.41092899
-0.380712 -0.44547999 -0.416022
-0.36956951 -0.45153704 -0.41201296
-0.359182 -0.45153701 -0.40508801
0.16369283 -0.44951797 -0.41219518
-0.42559701 -0.42124799 -0.41472101
-0.41057223 -0.42276248 -0.40847987
-0.39150119 -0.433364 -0.40783516
0.174243 -0.43942201 -0.40962303
0.188136 -0.43942204 -0.40962303
0.209131 -0.433364 -0.41016117
0.22678199 -0.42427698 -0.4074775
-0.44785622 -0.41182542 -0.40856683
-0.43077421 -0.41397938 -0.40698037
-0.41942599 -0.41519099 -0.40128499
0.23582549 -0.4136765 -0.41015673
0.2482155 -0.40913299 -0.4053055
-0.49062482 -0.39096001 -0.41274217
-0.47099304 -0.397017 -0.40986735
0.2549932 -0.3958056 -0.41278401
0.2700125 -0.38894048 -0.41058052
0.28749588 -0.37127152 -0.4112401
0.31009033 -0.36067101 -0.40951148
0.33060017 -0.35259369 -0.40902483
0.33978799 -0.33643901 -0.40448749
0.3505685 -0.33492476 -0.40461498
0.36302701 -0.30614999 -0.40347299
-0.225003 -0.48182601 -0.39556
-0.21125901 -0.48182598 -0.39556
-0.190643 -0.48182604 -0.39212403
-0.170886 -0.48182604 -0.38954699
-0.14850223 -0.48258328 -0.38948202
-0.12871145 -0.48317227 -0.38857248
-0.1080649 -0.48384535 -0.38851467
-0.08756239 -0.48182604 -0.388688
-0.066946357 -0.48182604 -0.38868797
-0.049683105 -0.48384535 -0.38851467
-0.032511935 -0.48384535 -0.38851467
-0.011887665 -0.48451847 -0.38845909
0.0063834521 -0.48283568 -0.390892
0.025825799 -0.48182601 -0.39556
-0.33012199 -0.463653 -0.397122
-0.30802959 -0.463653 -0.39436039
-0.288699 -0.46365303 -0.39021799
-0.26798698 -0.46365303 -0.39021802
-0.24793024 -0.4659248 -0.38915974
-0.23143567 -0.47374967 -0.38936451
-0.21183918 -0.47475934 -0.38583985
-0.19111 -0.47576901 -0.38231501
-0.163579 -0.47576901 -0.38231501
-0.15669701 -0.47576901 -0.38231501
0.013074904 -0.47576901 -0.38460934
0.030117601 -0.47576901 -0.38723144
0.049742162 -0.47307655 -0.38942242
0.070387691 -0.47173035 -0.38953468
0.091046192 -0.46971104 -0.38970801
0.11172722 -0.46634546 -0.38998768
0.13157475 -0.46365303 -0.39108098
0.14854634 -0.463653 -0.39482066
-0.36946779 -0.44669142 -0.39303002
-0.35249424 -0.449518 -0.39140332
-0.331597 -0.45052752 -0.38785768
-0.31243724 -0.45153701 -0.38604325
0.13942599 -0.45153701 -0.384312
0.15096866 -0.45153701 -0.38662031
0.16716844 -0.44884503 -0.39146245
0.18108299 -0.44547999 -0.38481101
-0.38608253 -0.43033502 -0.39301634
-0.37451899 -0.43942201 -0.38531101
0.18900424 -0.43942207 -0.39312527
0.209078 -0.43538332 -0.39259699
0.22921343 -0.42644054 -0.39135554
-0.44693437 -0.41216198 -0.38668472
-0.42863339 -0.40913302 -0.38640684
-0.41166934 -0.41216198 -0.38988483
-0.39613032 -0.41519102 -0.38730732
0.237525 -0.41519099 -0.380319
0.25164801 -0.4111523 -0.38764018
-0.46958882 -0.397017 -0.39301759
-0.45695201 -0.397017 -0.39582601
-0.42886901 -0.397017 -0.388805
-0.40429652 -0.397017 -0.38178399
0.26977369 -0.39499798 -0.38897315
0.28060549 -0.38793099 -0.38603801
0.29013416 -0.37711313 -0.39145586
0.30999354 -0.36269003 -0.39163619
0.32767922 -0.34976664 -0.39127582
0.33978799 -0.33643901 -0.39023352
0.35074651 -0.33189625 -0.39060521
0.36153999 -0.33038199 -0.38002101
0.36966243 -0.31480429 -0.38841826
0.38456699 -0.30614999 -0.381933
-0.066946365 -0.48182598 -0.374944
-0.049766302 -0.48182601 -0.374944
-0.228692 -0.46567234 -0.37394568
-0.21255422 -0.46607623 -0.37345281
-0.19163257 -0.46903789 -0.36907879
-0.17089511 -0.46971104 -0.36902335
-0.15026356 -0.46903789 -0.36907521
-0.12961954 -0.46836483 -0.36912945
-0.10885811 -0.46971104 -0.369021
-0.088112339 -0.47105727 -0.36891598
-0.067360587 -0.47274002 -0.36534253
-0.050015897 -0.47576901 -0.36510903
-0.032907277 -0.47307655 -0.3687591
-0.012247571 -0.47307655 -0.3687591
0.0084333783 -0.4737497 -0.36870599
0.029037602 -0.47105727 -0.36892068
0.049666647 -0.46836483 -0.36913177
0.069463611 -0.46592477 -0.37018561
0.08964844 -0.46607623 -0.37345281
0.108274 -0.463653 -0.37641001
-0.36684 -0.44547999 -0.37787601
-0.35296869 -0.44547999 -0.37787601
-0.3304275 -0.44547999 -0.376142
-0.31017956 -0.44721052 -0.37278196
-0.29000068 -0.45086405 -0.37051389
-0.26915568 -0.45153707 -0.370462
-0.24850167 -0.45019102 -0.37056577
-0.22933626 -0.45153701 -0.36526823
-0.21144666 -0.45153701 -0.36584535
0.077100404 -0.45153701 -0.36353701
0.092681952 -0.45153701 -0.36526823
0.11271685 -0.45067173 -0.36855012
0.13251644 -0.44884506 -0.37067077
0.14983383 -0.44951805 -0.37061766
0.16720378 -0.44615296 -0.37088567
0.18108301 -0.44547999 -0.37094
-0.382974 -0.427306 -0.3758525
-0.36845461 -0.43215242 -0.3719894
-0.34639147 -0.427306 -0.37062949
-0.33075234 -0.4374027 -0.366943
-0.31547499 -0.43942201 -0.364472
0.19160898 -0.43942204 -0.371418
0.20911331 -0.43403709 -0.3718406
0.2261012 -0.42367119 -0.37405223
-0.3530325 -0.41519099 -0.36634099
0.23519534 -0.41519102 -0.36867067
0.25027499 -0.4103446 -0.3709124
-0.42698348 -0.384902 -0.37571999
-0.40912032 -0.38692132 -0.37556067
-0.39453 -0.39096001 -0.37524199
-0.35234201 -0.39096001 -0.36117899
0.259161 -0.397017 -0.36423248
0.26969197 -0.397017 -0.36774299
0.28339681 -0.38853678 -0.36698899
-0.42588401 -0.36672801 -0.37007999
-0.41069567 -0.37480533 -0.36945668
-0.3885012 -0.3715744 -0.36687642
-0.37490201 -0.37884399 -0.36914501
0.29332978 -0.37884399 -0.37090826
0.3097339 -0.36807448 -0.36997923
0.32425901 -0.36067101 -0.36700499
0.33330151 -0.34653568 -0.37163731
0.33978799 -0.33643901 -0.37954301
0.35047802 -0.33643901 -0.37241599
0.36379531 -0.33240101 -0.367973
0.37421465 -0.318266 -0.37143198
0.38805625 -0.30766448 -0.36745876
0.39737669 -0.29403499 -0.36848632
0.41146052 -0.281919 -0.36578852
0.4257783 -0.26778433 -0.36563301
-0.19204466 -0.463653 -0.35569799
-0.171333 -0.463653 -0.35569799
-0.150621 -0.463653 -0.35569799
-0.085034452 -0.463653 -0.35569799
-0.069155581 -0.463653 -0.35293639
-0.046076927 -0.46365303 -0.35076672
-0.031529423 -0.463653 -0.35052022
-0.010571262 -0.46365303 -0.34978056
0.0081678471 -0.46365303 -0.34879434
0.028908998 -0.46499926 -0.34869301
0.044988502 -0.463653 -0.35339665
-0.304418 -0.44547999 -0.35706899
-0.29014 -0.44951805 -0.35329998
-0.26742426 -0.45153701 -0.35488075
-0.24874498 -0.44749895 -0.35345051
-0.22706713 -0.44775134 -0.35083276
-0.2102925 -0.45153704 -0.34968698
-0.19297899 -0.45153704 -0.34622452
-0.17234735 -0.44951805 -0.3463695
-0.15149416 -0.45052752 -0.346297
-0.13073689 -0.45019108 -0.34978369
-0.10998889 -0.44951805 -0.34983325
-0.090269305 -0.44807583 -0.34795856
-0.066595823 -0.45153701 -0.34449324
-0.051014349 -0.45153701 -0.34276199
-0.026776399 -0.45153701 -0.34622449
-0.019851301 -0.45153701 -0.34622449
0.051663999 -0.4485085 -0.34759799
0.070143394 -0.4485085 -0.35337248
0.091797695 -0.44775134 -0.35082862
0.109414 -0.44547996 -0.35244498
0.125597 -0.44547999 -0.35706899
-0.329368 -0.43942201 -0.35405201
-0.31339121 -0.43942204 -0.35335737
-0.25003701 -0.433364 -0.34406796
-0.23559199 -0.43942201 -0.34363201
0.070047833 -0.43942201 -0.34363201
0.083940603 -0.43942201 -0.34363201
0.11635667 -0.43942201 -0.34594765
0.13343325 -0.43942207 -0.34971038
0.14993101 -0.43942204 -0.3505787
0.16731709 -0.43807581 -0.35067558
0.18818922 -0.43672955 -0.35077354
0.20835374 -0.42957774 -0.35217199
0.223378 -0.42124799 -0.358895
-0.342549 -0.41519099 -0.35585749
0.21655899 -0.41519099 -0.34537399
0.23150149 -0.41216198 -0.35170859
0.24704899 -0.40913299 -0.35747567
0.25354439 -0.397017 -0.34948939
0.26989219 -0.39196953 -0.34704199
0.28412652 -0.38793099 -0.34733418
0.295093 -0.37884399 -0.34798732
0.30960166 -0.3707667 -0.34856778
0.32425901 -0.36067101 -0.34929368
0.33556047 -0.348555 -0.3501645
0.35047802 -0.33643901 -0.35103568
0.364923 -0.3334105 -0.35125336
0.37673199 -0.31624666 -0.35248366
0.3873584 -0.3073616 -0.35168782
0.40020201 -0.28797701 -0.34730732
0.4124907 -0.26778436 -0.34872201
0.42593035 -0.26576468 -0.35369802
0.42867801 -0.245572 -0.34663799
0.43325499 -0.233456 -0.343824
0.44470549 -0.2273985 -0.34789699
0.45667499 -0.21528301 -0.34873599
0.46401501 -0.21528301 -0.34506601
-0.009091855 -0.463653 -0.33498701
0.00471592 -0.463653 -0.33498701
-0.22068 -0.45153701 -0.33583599
-0.20698899 -0.44951805 -0.33251354
-0.19113499 -0.44547999 -0.33394933
-0.17610699 -0.44547999 -0.336261
-0.123728 -0.45153701 -0.33583599
-0.11010099 -0.44749901 -0.33611932
-0.065669656 -0.44911423 -0.33185101
-0.047551766 -0.45153704 -0.3323735
-0.028558126 -0.45002276 -0.33247724
-0.01119489 -0.45153701 -0.32891101
0.0078491848 -0.45153704 -0.32891101
0.028541349 -0.44749904 -0.33265185
-0.10950381 -0.433364 -0.32736701
-0.089923829 -0.43538338 -0.33001229
-0.072846502 -0.42882049 -0.32697549
0.011003735 -0.43942201 -0.32279301
0.028369667 -0.43942201 -0.32279301
0.04915683 -0.43605646 -0.32996631
0.069984101 -0.43336397 -0.330154
0.090860978 -0.43471017 -0.33005959
0.11172722 -0.43672958 -0.32992032
0.13259111 -0.43471023 -0.33005956
0.15004949 -0.42730597 -0.33056101
0.16648228 -0.42644057 -0.33261183
0.18836983 -0.42730597 -0.33404648
0.202305 -0.427306 -0.33404648
0.17113149 -0.41519099 -0.32440799
0.18863867 -0.41317165 -0.32454231
0.21080916 -0.41216198 -0.33160034
0.2272175 -0.40913299 -0.33881
0.21703701 -0.397017 -0.32561901
0.23213413 -0.39528641 -0.33074859
0.25228435 -0.39297888 -0.33291075
0.2701115 -0.38641649 -0.32984352
0.28308034 -0.384902 -0.33112064
0.27442399 -0.36672801 -0.32056299
0.29079464 -0.36975718 -0.32507166
0.30843979 -0.3655166 -0.33196419
0.31246424 -0.34855503 -0.32351574
0.33120024 -0.3470405 -0.32983264
0.33978799 -0.33643901 -0.322528
0.35053834 -0.33542952 -0.3297205
0.3631385 -0.3334105 -0.33163851
0.37397319 -0.31463119 -0.32967621
0.38743901 -0.30614999 -0.33310899
0.39298999 -0.28797701 -0.325672
0.40062699 -0.281919 -0.329676
0.41234201 -0.269804 -0.3304725
0.423664 -0.26374501 -0.33087099
0.43412635 -0.25364932 -0.32304832
0.44689301 -0.245572 -0.321136
0.43325499 -0.233456 -0.33651599
0.44941059 -0.22739872 -0.33169556
0.46299499 -0.2273985 -0.325948
0.46951926 -0.21528301 -0.33222249
0.00092405098 -0.45153701 -0.315061
0.01196319 -0.43134466 -0.31404504
0.028072245 -0.42528665 -0.30978602
0.048921932 -0.42124799 -0.31702599
0.069856636 -0.42124799 -0.313537
0.090809025 -0.42528665 -0.31327501
0.11172366 -0.43201774 -0.30936566
0.13090549 -0.42427698 -0.31508499
0.048778549 -0.41216198 -0.30712149
0.069729134 -0.40913299 -0.30381301
0.0907453 -0.41317168 -0.303565
0.129209 -0.41216201 -0.30712152
0.15019649 -0.41216201 -0.31761551
0.160722 -0.40913299 -0.317812
0.13746868 -0.397017 -0.30689701
0.150372 -0.39398849 -0.30825549
0.16883299 -0.39247423 -0.3109825
0.189007 -0.39432499 -0.31174359
0.20916156 -0.39095971 -0.31396413
0.23143899 -0.384902 -0.31938401
0.249044 -0.384902 -0.31938401
0.21398851 -0.37884399 -0.30567199
0.23168349 -0.37682465 -0.30932179
0.25161761 -0.3715744 -0.31176397
0.26620999 -0.36571884 -0.31236666
0.281753 -0.36067101 -0.313871
0.26971301 -0.35158402 -0.30201825
0.28940916 -0.34768957 -0.30758071
0.31009275 -0.34249699 -0.30879188
0.32521501 -0.34249699 -0.31501901
0.29702601 -0.33643901 -0.30114701
0.318407 -0.33643901 -0.30114701
0.33152798 -0.33542952 -0.30833414
0.34726533 -0.33038199 -0.31340399
0.34968442 -0.31341964 -0.30538502
0.36912239 -0.30917898 -0.31084049
0.38456699 -0.30614999 -0.313723
0.37817299 -0.29403499 -0.303675
0.39159852 -0.281919 -0.30981398
0.40062699 -0.281919 -0.31884199
0.40984726 -0.26677451 -0.31164223
0.423664 -0.26374501 -0.31273499
0.43549651 -0.25163001 -0.30984074
0.45053649 -0.245572 -0.31020701
0.46316501 -0.22537933 -0.30776069
0.47471482 -0.21043661 -0.30718639
0.1152045 -0.433364 -0.295369
0.055730298 -0.40913299 -0.29681399
0.062729701 -0.40913299 -0.29681399
0.097727098 -0.40913299 -0.29681399
0.104727 -0.40913299 -0.29681399
0.125725 -0.40913299 -0.29681399
0.087116301 -0.39096001 -0.29789701
0.118747 -0.397017 -0.29051501
0.132788 -0.397017 -0.29402548
0.15157402 -0.39095965 -0.29554966
0.16798733 -0.39028686 -0.29090345
0.186803 -0.38692132 -0.29344299
0.139936 -0.37884399 -0.28804052
0.14933968 -0.37884399 -0.286865
0.19400601 -0.37884399 -0.286865
0.21062943 -0.3721129 -0.29194915
0.23210301 -0.36269 -0.29603985
0.24987249 -0.36067101 -0.299703
0.232342 -0.35461298 -0.28587401
0.25028676 -0.34855503 -0.28976101
0.26650551 -0.34249699 -0.29189074
0.28607547 -0.34249699 -0.29367
0.27208149 -0.33643901 -0.28689301
0.29280502 -0.33522761 -0.28695899
0.31050062 -0.33416766 -0.28790885
0.32812533 -0.33240101 -0.29187468
0.31933099 -0.318266 -0.280754
0.33148202 -0.31422734 -0.28336334
0.34572703 -0.30736157 -0.2913948
0.35296848 -0.29403499 -0.2856715
0.37122667 -0.28999633 -0.28949535
0.38618198 -0.281919 -0.28995237
0.394371 -0.26778433 -0.29074168
0.40666667 -0.26475486 -0.2933315
0.41443434 -0.25768799 -0.28646865
0.42997816 -0.24903369 -0.29283515
0.44738197 -0.23951504 -0.29233128
0.457674 -0.20316701 -0.28701001
0.47205165 -0.20720567 -0.29046384
0.48711601 -0.20316701 -0.29069051
0.49353153 -0.172878 -0.281243
0.16800867 -0.38894066 -0.27339533
0.15404101 -0.37884399 -0.27746099
0.18930434 -0.37884399 -0.27746099
0.20943399 -0.36309379 -0.27548379
0.18977199 -0.35461298 -0.27168301
0.21847101 -0.34249699 -0.27232099
0.230924 -0.34249699 -0.27765799
0.24693599 -0.34249699 -0.27943701
0.175964 -0.33038199 -0.26582101
0.19015734 -0.33442 -0.26561499
0.20793951 -0.33643901 -0.26551199
0.230565 -0.33442 -0.26799068
0.24818614 -0.33557373 -0.27064687
0.26946875 -0.33492476 -0.27360711
0.28805098 -0.33211258 -0.27286401
0.219108 -0.318266 -0.26643699
0.262061 -0.318266 -0.26643699
0.29840699 -0.30614999 -0.26705301
0.31067699 -0.312208 -0.27211902
0.330717 -0.30614999 -0.27423301
0.29563451 -0.28797698 -0.26076448
0.31135067 -0.28595766 -0.26326433
0.32819101 -0.28595766 -0.26446816
0.34894997 -0.28570527 -0.26898989
0.36451399 -0.281919 -0.275507
0.35801399 -0.269804 -0.261657
0.37142166 -0.26778436 -0.26900151
0.38376501 -0.26374501 -0.272836
0.38957623 -0.25284162 -0.2683062
0.40842801 -0.24860099 -0.27543825
0.39630401 -0.23951501 -0.26314399
0.41253319 -0.23709139 -0.26618159
0.42975554 -0.23143733 -0.27084097
0.44421649 -0.233456 -0.278056
0.44845876 -0.20801342 -0.27057439
0.45817301 -0.19711 -0.26891148
0.46991667 -0.18903267 -0.27300069
0.48099497 -0.18903266 -0.27300069
0.49353153 -0.172878 -0.27012199
0.19161759 -0.3328048 -0.25570899
0.20679767 -0.33442 -0.25610566
0.233064 -0.33038199 -0.25154534
0.24630013 -0.33492476 -0.25222275
0.217435 -0.31372249 -0.2523315
0.226267 -0.318266 -0.252119
0.25490201 -0.318266 -0.24496
0.26702431 -0.31321767 -0.25474247
0.28404701 -0.30614999 -0.259873
0.27519932 -0.28797701 -0.24874501
0.28506601 -0.281919 -0.25384
0.29002661 -0.26738042 -0.2458266
0.30749866 -0.26576471 -0.24735001
0.32825285 -0.26753187 -0.24817562
0.34913424 -0.26677451 -0.25274301
0.36562899 -0.26374501 -0.25470001
0.336941 -0.25768799 -0.240457
0.35306841 -0.25526482 -0.24346919
0.37109935 -0.25364932 -0.25032768
0.38496 -0.245572 -0.25556001
0.37076449 -0.23951501 -0.241253
0.39022541 -0.23691832 -0.24658057
0.40994176 -0.2273985 -0.25458848
0.412857 -0.212254 -0.24611801
0.42915031 -0.20720565 -0.250016
0.44295299 -0.20316701 -0.257568
0.43699399 -0.184994 -0.243643
0.45267144 -0.19226359 -0.25365257
0.466564 -0.184994 -0.25842801
0.452268 -0.178936 -0.243909
0.4717218 -0.17651281 -0.24993739
0.48594084 -0.17489751 -0.25148883
0.233064 -0.33038199 -0.23727
0.24020199 -0.33038199 -0.23727
0.25575101 -0.29403499 -0.23886301
0.27031699 -0.2899963 -0.23904033
0.29335099 -0.25768799 -0.2295595
0.30677661 -0.25041839 -0.2305876
0.32302701 -0.245572 -0.233702
0.3322826 -0.23587961 -0.22972479
0.35170999 -0.23244716 -0.22937132
0.3677856 -0.22860999 -0.22855639
0.38533199 -0.221341 -0.232278
0.33190668 -0.21528299 -0.22029699
0.34658501 -0.21528301 -0.22029699
0.37104964 -0.21528299 -0.22274365
0.39062133 -0.21528299 -0.22763665
0.40615001 -0.20316701 -0.235486
0.3955175 -0.19711 -0.224684
0.40720651 -0.18802299 -0.22688276
0.4254595 -0.19105199 -0.23599601
0.41547 -0.175907 -0.22551751
0.43151185 -0.17374358 -0.22718899
0.44953248 -0.1668205 -0.2332975
0.46758369 -0.17287798 -0.23676001
0.490554 -0.16480133 -0.23710001
0.45098752 -0.14864701 -0.2228675
0.46962318 -0.148647 -0.2265905
0.48826849 -0.14864701 -0.230324
0.5 -0.142589 -0.23056801
0.48933601 -0.13653199 -0.223335
0.31722799 -0.21528301 -0.21295799
0.3306894 -0.21043661 -0.2101924
0.35171199 -0.21124434 -0.21065332
0.36162502 -0.209225 -0.209501
0.34458849 -0.184994 -0.206681
0.3737815 -0.191052 -0.210154
0.38524699 -0.184994 -0.214073
0.39064062 -0.17045519 -0.20569739
0.40696758 -0.17045519 -0.21163881
0.423994 -0.160763 -0.214965
0.40983167 -0.15066634 -0.20291366
0.42860851 -0.14864701 -0.2116785
0.44399899 -0.142589 -0.215635
0.41830099 -0.13653199 -0.200903
0.43106732 -0.13249333 -0.20352966
0.44982785 -0.12960857 -0.20647728
0.47132242 -0.12845466 -0.20865633
0.48933601 -0.13653199 -0.215858
0.49022865 -0.112301 -0.20672333
0.3298035 -0.184994 -0.199288
0.32888266 -0.178936 -0.18961932
0.34980887 -0.17439276 -0.19314787
0.37114549 -0.17388767 -0.19595134
0.37232065 -0.154705 -0.18540601
0.39133301 -0.148647 -0.18930951
0.40293199 -0.142589 -0.18576699
0.41111365 -0.13249333 -0.19355267
0.4754115 -0.124416 -0.193808
0.48666 -0.124416 -0.193808
0.33700499 -0.118358 -0.18649
0.34451401 -0.118358 -0.18649
0.412523 -0.112301 -0.18667001
0.42888579 -0.1147238 -0.18960162
0.44980153 -0.116339 -0.19030452
0.47029474 -0.118358 -0.18836725
0.338938 0.226936 -0.18055201
0.35110998 0.226936 -0.18055201
0.3704305 -0.124416 -0.17881
0.35202336 -0.11835801 -0.1752255
0.37241635 -0.112301 -0.16912334
0.38713065 -0.1173485 -0.17399867
0.40960151 -0.100185 -0.17949
0.42996302 -0.100185 -0.17647362
0.44995904 -0.11432 -0.17533517
0.46716598 -0.11835799 -0.176477
0.42134899 -0.094126999 -0.17210799
0.331397 0.23905201 -0.168667
0.35173699 0.239052 -0.168667
0.36394 0.239052 -0.17273501
0.29258004 0.24511001 -0.1679958
0.311317 0.24511001 -0.1688105
0.33100733 0.23097466 -0.15223199
0.34766901 0.239052 -0.14832699
0.29654467 0.24914832 -0.15395333
0.31144449 0.24813876 -0.152576
0.34797701 0.24511001 -0.156591
0 0 0 1 0 0 0 1 0 0 0 1 0 0 0 0 0 737 1 0 0
