ply
format ascii 1.0
comment VCGLIB generated
element vertex 906
property float x
property float y
property float z
property float nx
property float ny
property float nz
property uchar red
property uchar green
property uchar blue
property uchar alpha
element face 0
property list uchar int vertex_indices
end_header
-0.0255018 -0.487884 -0.408763 0 0 0 255 255 255 255 
-0.0186405 -0.487884 -0.408763 0 0 0 255 255 255 255 
-0.0117791 -0.487884 -0.408763 0 0 0 255 255 255 255 
-0.00491768 -0.487884 -0.408763 0 0 0 255 255 255 255 
0.00194371 -0.487884 -0.408763 0 0 0 255 255 255 255 
0.0088051 -0.487884 -0.408763 0 0 0 255 255 255 255 
0.0155178 -0.481826 -0.409304 0 0 0 255 255 255 255 
0.0223898 -0.481826 -0.409304 0 0 0 255 255 255 255 
0.0292618 -0.481826 -0.409304 0 0 0 255 255 255 255 
0.0361339 -0.481826 -0.409304 0 0 0 255 255 255 255 
0.0428997 -0.475769 -0.409846 0 0 0 255 255 255 255 
0.0497823 -0.475769 -0.409846 0 0 0 255 255 255 255 
0.0566649 -0.475769 -0.409846 0 0 0 255 255 255 255 
0.0635476 -0.475769 -0.409846 0 0 0 255 255 255 255 
0.0704302 -0.475769 -0.409846 0 0 0 255 255 255 255 
0.0773128 -0.475769 -0.409846 0 0 0 255 255 255 255 
0.0841529 -0.469711 -0.410388 0 0 0 255 255 255 255 
0.0910462 -0.469711 -0.410388 0 0 0 255 255 255 255 
0.0979395 -0.469711 -0.410388 0 0 0 255 255 255 255 
0.104833 -0.469711 -0.410388 0 0 0 255 255 255 255 
0.111726 -0.469711 -0.410388 0 0 0 255 255 255 255 
0.118619 -0.469711 -0.410388 0 0 0 255 255 255 255 
0.125534 -0.463653 -0.410929 0 0 0 255 255 255 255 
0.132438 -0.463653 -0.410929 0 0 0 255 255 255 255 
0.139341 -0.463653 -0.410929 0 0 0 255 255 255 255 
0.146245 -0.463653 -0.410929 0 0 0 255 255 255 255 
0.153149 -0.463653 -0.410929 0 0 0 255 255 255 255 
0.160202 -0.451537 -0.412013 0 0 0 255 255 255 255 
0.167212 -0.44548 -0.412554 0 0 0 255 255 255 255 
0.174243 -0.439422 -0.413096 0 0 0 255 255 255 255 
0.18119 -0.439422 -0.413096 0 0 0 255 255 255 255 
0.188136 -0.439422 -0.413096 0 0 0 255 255 255 255 
0.195082 -0.439422 -0.413096 0 0 0 255 255 255 255 
0.202029 -0.439422 -0.413096 0 0 0 255 255 255 255 
0.209124 -0.433364 -0.413638 0 0 0 255 255 255 255 
0.216399 -0.421248 -0.414721 0 0 0 255 255 255 255 
0.223378 -0.421248 -0.414721 0 0 0 255 255 255 255 
0.230536 -0.415191 -0.415263 0 0 0 255 255 255 255 
0.237716 -0.409133 -0.415805 0 0 0 255 255 255 255 
0.24512 -0.397017 -0.416888 0 0 0 255 255 255 255 
0.25214 -0.397017 -0.416888 0 0 0 255 255 255 255 
0.259384 -0.39096 -0.41743 0 0 0 255 255 255 255 
0.266649 -0.384902 -0.417971 0 0 0 255 255 255 255 
0.273691 -0.384902 -0.417971 0 0 0 255 255 255 255 
0.280988 -0.378844 -0.418513 0 0 0 255 255 255 255 
0.288571 -0.366728 -0.419596 0 0 0 255 255 255 255 
0.295921 -0.360671 -0.420138 0 0 0 255 255 255 255 
0.303006 -0.360671 -0.420138 0 0 0 255 255 255 255 
0.31009 -0.360671 -0.420138 0 0 0 255 255 255 255 
0.317175 -0.360671 -0.420138 0 0 0 255 255 255 255 
0.324578 -0.354613 -0.42068 0 0 0 255 255 255 255 
0.332661 -0.336439 -0.422305 0 0 0 255 255 255 255 
-0.5 -0.39096 -0.424461 0 0 0 255 255 255 255 
-0.492969 -0.39096 -0.424461 0 0 0 255 255 255 255 
-0.485937 -0.39096 -0.424461 0 0 0 255 255 255 255 
-0.478906 -0.39096 -0.424461 0 0 0 255 255 255 255 
-0.470993 -0.397017 -0.423909 0 0 0 255 255 255 255 
-0.463972 -0.397017 -0.423909 0 0 0 255 255 255 255 
-0.455231 -0.409133 -0.422804 0 0 0 255 255 255 255 
-0.447382 -0.415191 -0.422252 0 0 0 255 255 255 255 
-0.440393 -0.415191 -0.422252 0 0 0 255 255 255 255 
-0.432576 -0.421248 -0.421699 0 0 0 255 255 255 255 
-0.425597 -0.421248 -0.421699 0 0 0 255 255 255 255 
-0.417005 -0.433364 -0.420595 0 0 0 255 255 255 255 
-0.410048 -0.433364 -0.420595 0 0 0 255 255 255 255 
-0.403091 -0.433364 -0.420595 0 0 0 255 255 255 255 
-0.396134 -0.433364 -0.420595 0 0 0 255 255 255 255 
-0.388412 -0.439422 -0.420042 0 0 0 255 255 255 255 
-0.380712 -0.44548 -0.41949 0 0 0 255 255 255 255 
-0.373032 -0.451537 -0.418938 0 0 0 255 255 255 255 
-0.366107 -0.451537 -0.418938 0 0 0 255 255 255 255 
-0.357738 -0.463653 -0.417833 0 0 0 255 255 255 255 
-0.350834 -0.463653 -0.417833 0 0 0 255 255 255 255 
-0.34393 -0.463653 -0.417833 0 0 0 255 255 255 255 
-0.337026 -0.463653 -0.417833 0 0 0 255 255 255 255 
-0.330122 -0.463653 -0.417833 0 0 0 255 255 255 255 
-0.323218 -0.463653 -0.417833 0 0 0 255 255 255 255 
-0.315656 -0.469711 -0.417281 0 0 0 255 255 255 255 
-0.308763 -0.469711 -0.417281 0 0 0 255 255 255 255 
-0.301869 -0.469711 -0.417281 0 0 0 255 255 255 255 
-0.294976 -0.469711 -0.417281 0 0 0 255 255 255 255 
-0.287467 -0.475769 -0.416729 0 0 0 255 255 255 255 
-0.280584 -0.475769 -0.416729 0 0 0 255 255 255 255 
-0.273702 -0.475769 -0.416729 0 0 0 255 255 255 255 
-0.266819 -0.475769 -0.416729 0 0 0 255 255 255 255 
-0.259936 -0.475769 -0.416729 0 0 0 255 255 255 255 
-0.253054 -0.475769 -0.416729 0 0 0 255 255 255 255 
-0.245619 -0.481826 -0.416176 0 0 0 255 255 255 255 
-0.238747 -0.481826 -0.416176 0 0 0 255 255 255 255 
-0.231875 -0.481826 -0.416176 0 0 0 255 255 255 255 
-0.225003 -0.481826 -0.416176 0 0 0 255 255 255 255 
-0.218131 -0.481826 -0.416176 0 0 0 255 255 255 255 
-0.211259 -0.481826 -0.416176 0 0 0 255 255 255 255 
-0.204387 -0.481826 -0.416176 0 0 0 255 255 255 255 
-0.197515 -0.481826 -0.416176 0 0 0 255 255 255 255 
-0.190643 -0.481826 -0.416176 0 0 0 255 255 255 255 
-0.183314 -0.487884 -0.415624 0 0 0 255 255 255 255 
-0.176452 -0.487884 -0.415624 0 0 0 255 255 255 255 
-0.169591 -0.487884 -0.415624 0 0 0 255 255 255 255 
-0.16273 -0.487884 -0.415624 0 0 0 255 255 255 255 
-0.155868 -0.487884 -0.415624 0 0 0 255 255 255 255 
-0.149007 -0.487884 -0.415624 0 0 0 255 255 255 255 
-0.142145 -0.487884 -0.415624 0 0 0 255 255 255 255 
-0.134519 -0.5 -0.414519 0 0 0 255 255 255 255 
-0.127679 -0.5 -0.414519 0 0 0 255 255 255 255 
-0.121561 -0.487884 -0.415624 0 0 0 255 255 255 255 
-0.1147 -0.487884 -0.415624 0 0 0 255 255 255 255 
-0.107839 -0.487884 -0.415624 0 0 0 255 255 255 255 
-0.100977 -0.487884 -0.415624 0 0 0 255 255 255 255 
-0.0941158 -0.487884 -0.415624 0 0 0 255 255 255 255 
-0.0872544 -0.487884 -0.415624 0 0 0 255 255 255 255 
-0.080393 -0.487884 -0.415624 0 0 0 255 255 255 255 
-0.0735316 -0.487884 -0.415624 0 0 0 255 255 255 255 
-0.0666702 -0.487884 -0.415624 0 0 0 255 255 255 255 
-0.0598088 -0.487884 -0.415624 0 0 0 255 255 255 255 
-0.0529474 -0.487884 -0.415624 0 0 0 255 255 255 255 
-0.046086 -0.487884 -0.415624 0 0 0 255 255 255 255 
-0.0392246 -0.487884 -0.415624 0 0 0 255 255 255 255 
-0.0323632 -0.487884 -0.415624 0 0 0 255 255 255 255 
-0.0255018 -0.487884 -0.415624 0 0 0 255 255 255 255 
-0.0186405 -0.487884 -0.415624 0 0 0 255 255 255 255 
-0.0117791 -0.487884 -0.415624 0 0 0 255 255 255 255 
-0.00491768 -0.487884 -0.415624 0 0 0 255 255 255 255 
0.00194371 -0.487884 -0.415624 0 0 0 255 255 255 255 
0.0088051 -0.487884 -0.415624 0 0 0 255 255 255 255 
0.0155178 -0.481826 -0.416176 0 0 0 255 255 255 255 
0.0223898 -0.481826 -0.416176 0 0 0 255 255 255 255 
0.0293893 -0.487884 -0.415624 0 0 0 255 255 255 255 
0.0362507 -0.487884 -0.415624 0 0 0 255 255 255 255 
0.0430058 -0.481826 -0.416176 0 0 0 255 255 255 255 
0.0497823 -0.475769 -0.416729 0 0 0 255 255 255 255 
0.0566649 -0.475769 -0.416729 0 0 0 255 255 255 255 
0.0635476 -0.475769 -0.416729 0 0 0 255 255 255 255 
0.0704302 -0.475769 -0.416729 0 0 0 255 255 255 255 
0.0773128 -0.475769 -0.416729 0 0 0 255 255 255 255 
0.0841529 -0.469711 -0.417281 0 0 0 255 255 255 255 
0.0910462 -0.469711 -0.417281 0 0 0 255 255 255 255 
0.0979395 -0.469711 -0.417281 0 0 0 255 255 255 255 
0.104833 -0.469711 -0.417281 0 0 0 255 255 255 255 
0.111726 -0.469711 -0.417281 0 0 0 255 255 255 255 
0.118619 -0.469711 -0.417281 0 0 0 255 255 255 255 
0.125534 -0.463653 -0.417833 0 0 0 255 255 255 255 
0.132438 -0.463653 -0.417833 0 0 0 255 255 255 255 
0.139341 -0.463653 -0.417833 0 0 0 255 255 255 255 
0.146245 -0.463653 -0.417833 0 0 0 255 255 255 255 
0.153149 -0.463653 -0.417833 0 0 0 255 255 255 255 
0.160202 -0.451537 -0.418938 0 0 0 255 255 255 255 
0.167212 -0.44548 -0.41949 0 0 0 255 255 255 255 
0.174243 -0.439422 -0.420042 0 0 0 255 255 255 255 
0.18119 -0.439422 -0.420042 0 0 0 255 255 255 255 
0.188136 -0.439422 -0.420042 0 0 0 255 255 255 255 
0.195082 -0.439422 -0.420042 0 0 0 255 255 255 255 
0.202167 -0.433364 -0.420595 0 0 0 255 255 255 255 
0.209421 -0.421248 -0.421699 0 0 0 255 255 255 255 
0.216559 -0.415191 -0.422252 0 0 0 255 255 255 255 
0.223548 -0.415191 -0.422252 0 0 0 255 255 255 255 
0.230717 -0.409133 -0.422804 0 0 0 255 255 255 255 
0.237716 -0.409133 -0.422804 0 0 0 255 255 255 255 
0.24512 -0.397017 -0.423909 0 0 0 255 255 255 255 
0.25214 -0.397017 -0.423909 0 0 0 255 255 255 255 
0.259384 -0.39096 -0.424461 0 0 0 255 255 255 255 
0.266883 -0.378844 -0.425566 0 0 0 255 255 255 255 
0.273935 -0.378844 -0.425566 0 0 0 255 255 255 255 
0.280988 -0.378844 -0.425566 0 0 0 255 255 255 255 
0.288837 -0.360671 -0.427222 0 0 0 255 255 255 255 
0.296198 -0.354613 -0.427775 0 0 0 255 255 255 255 
0.303293 -0.354613 -0.427775 0 0 0 255 255 255 255 
0.310388 -0.354613 -0.427775 0 0 0 255 255 255 255 
-0.5 -0.39096 -0.431492 0 0 0 255 255 255 255 
-0.492969 -0.39096 -0.431492 0 0 0 255 255 255 255 
-0.485937 -0.39096 -0.431492 0 0 0 255 255 255 255 
-0.478906 -0.39096 -0.431492 0 0 0 255 255 255 255 
-0.470993 -0.397017 -0.430929 0 0 0 255 255 255 255 
-0.463972 -0.397017 -0.430929 0 0 0 255 255 255 255 
-0.455231 -0.409133 -0.429803 0 0 0 255 255 255 255 
-0.447382 -0.415191 -0.429241 0 0 0 255 255 255 255 
-0.440393 -0.415191 -0.429241 0 0 0 255 255 255 255 
-0.432576 -0.421248 -0.428678 0 0 0 255 255 255 255 
-0.425597 -0.421248 -0.428678 0 0 0 255 255 255 255 
-0.417005 -0.433364 -0.427552 0 0 0 255 255 255 255 
-0.410048 -0.433364 -0.427552 0 0 0 255 255 255 255 
-0.403091 -0.433364 -0.427552 0 0 0 255 255 255 255 
-0.396134 -0.433364 -0.427552 0 0 0 255 255 255 255 
-0.388412 -0.439422 -0.426989 0 0 0 255 255 255 255 
-0.380712 -0.44548 -0.426426 0 0 0 255 255 255 255 
-0.373032 -0.451537 -0.425863 0 0 0 255 255 255 255 
-0.366107 -0.451537 -0.425863 0 0 0 255 255 255 255 
-0.357738 -0.463653 -0.424737 0 0 0 255 255 255 255 
-0.350834 -0.463653 -0.424737 0 0 0 255 255 255 255 
-0.34393 -0.463653 -0.424737 0 0 0 255 255 255 255 
-0.337026 -0.463653 -0.424737 0 0 0 255 255 255 255 
-0.330122 -0.463653 -0.424737 0 0 0 255 255 255 255 
-0.323218 -0.463653 -0.424737 0 0 0 255 255 255 255 
-0.315656 -0.469711 -0.424174 0 0 0 255 255 255 255 
-0.308763 -0.469711 -0.424174 0 0 0 255 255 255 255 
-0.301869 -0.469711 -0.424174 0 0 0 255 255 255 255 
-0.294976 -0.469711 -0.424174 0 0 0 255 255 255 255 
-0.287467 -0.475769 -0.423611 0 0 0 255 255 255 255 
-0.280584 -0.475769 -0.423611 0 0 0 255 255 255 255 
-0.273702 -0.475769 -0.423611 0 0 0 255 255 255 255 
-0.266819 -0.475769 -0.423611 0 0 0 255 255 255 255 
-0.259936 -0.475769 -0.423611 0 0 0 255 255 255 255 
-0.253054 -0.475769 -0.423611 0 0 0 255 255 255 255 
-0.245619 -0.481826 -0.423048 0 0 0 255 255 255 255 
-0.238747 -0.481826 -0.423048 0 0 0 255 255 255 255 
-0.231875 -0.481826 -0.423048 0 0 0 255 255 255 255 
-0.225003 -0.481826 -0.423048 0 0 0 255 255 255 255 
-0.218131 -0.481826 -0.423048 0 0 0 255 255 255 255 
-0.211259 -0.481826 -0.423048 0 0 0 255 255 255 255 
-0.204387 -0.481826 -0.423048 0 0 0 255 255 255 255 
-0.197515 -0.481826 -0.423048 0 0 0 255 255 255 255 
-0.190643 -0.481826 -0.423048 0 0 0 255 255 255 255 
-0.183314 -0.487884 -0.422485 0 0 0 255 255 255 255 
-0.176452 -0.487884 -0.422485 0 0 0 255 255 255 255 
-0.169591 -0.487884 -0.422485 0 0 0 255 255 255 255 
-0.16273 -0.487884 -0.422485 0 0 0 255 255 255 255 
-0.155868 -0.487884 -0.422485 0 0 0 255 255 255 255 
-0.149007 -0.487884 -0.422485 0 0 0 255 255 255 255 
-0.142145 -0.487884 -0.422485 0 0 0 255 255 255 255 
-0.134519 -0.5 -0.42136 0 0 0 255 255 255 255 
-0.127679 -0.5 -0.42136 0 0 0 255 255 255 255 
-0.121561 -0.487884 -0.422485 0 0 0 255 255 255 255 
-0.1147 -0.487884 -0.422485 0 0 0 255 255 255 255 
-0.107839 -0.487884 -0.422485 0 0 0 255 255 255 255 
-0.100977 -0.487884 -0.422485 0 0 0 255 255 255 255 
-0.0941158 -0.487884 -0.422485 0 0 0 255 255 255 255 
-0.0872544 -0.487884 -0.422485 0 0 0 255 255 255 255 
-0.080393 -0.487884 -0.422485 0 0 0 255 255 255 255 
-0.0735316 -0.487884 -0.422485 0 0 0 255 255 255 255 
-0.0666702 -0.487884 -0.422485 0 0 0 255 255 255 255 
-0.0598088 -0.487884 -0.422485 0 0 0 255 255 255 255 
-0.0529474 -0.487884 -0.422485 0 0 0 255 255 255 255 
-0.046086 -0.487884 -0.422485 0 0 0 255 255 255 255 
-0.0392246 -0.487884 -0.422485 0 0 0 255 255 255 255 
-0.0323632 -0.487884 -0.422485 0 0 0 255 255 255 255 
-0.0255018 -0.487884 -0.422485 0 0 0 255 255 255 255 
-0.0188423 -0.481826 -0.423048 0 0 0 255 255 255 255 
-0.0117791 -0.487884 -0.422485 0 0 0 255 255 255 255 
-0.00491768 -0.487884 -0.422485 0 0 0 255 255 255 255 
0.00194371 -0.487884 -0.422485 0 0 0 255 255 255 255 
0.0088051 -0.487884 -0.422485 0 0 0 255 255 255 255 
0.0155178 -0.481826 -0.423048 0 0 0 255 255 255 255 
0.0225279 -0.487884 -0.422485 0 0 0 255 255 255 255 
0.0293893 -0.487884 -0.422485 0 0 0 255 255 255 255 
0.0362507 -0.487884 -0.422485 0 0 0 255 255 255 255 
0.0430058 -0.481826 -0.423048 0 0 0 255 255 255 255 
0.0497823 -0.475769 -0.423611 0 0 0 255 255 255 255 
0.0566649 -0.475769 -0.423611 0 0 0 255 255 255 255 
0.0635476 -0.475769 -0.423611 0 0 0 255 255 255 255 
0.0704302 -0.475769 -0.423611 0 0 0 255 255 255 255 
0.0773128 -0.475769 -0.423611 0 0 0 255 255 255 255 
0.0841529 -0.469711 -0.424174 0 0 0 255 255 255 255 
0.0910462 -0.469711 -0.424174 0 0 0 255 255 255 255 
0.0979395 -0.469711 -0.424174 0 0 0 255 255 255 255 
0.104833 -0.469711 -0.424174 0 0 0 255 255 255 255 
0.111726 -0.469711 -0.424174 0 0 0 255 255 255 255 
0.11863 -0.463653 -0.424737 0 0 0 255 255 255 255 
0.125534 -0.463653 -0.424737 0 0 0 255 255 255 255 
0.132438 -0.463653 -0.424737 0 0 0 255 255 255 255 
0.139341 -0.463653 -0.424737 0 0 0 255 255 255 255 
0.146245 -0.463653 -0.424737 0 0 0 255 255 255 255 
0.153277 -0.451537 -0.425863 0 0 0 255 255 255 255 
0.160202 -0.451537 -0.425863 0 0 0 255 255 255 255 
0.167212 -0.44548 -0.426426 0 0 0 255 255 255 255 
0.174243 -0.439422 -0.426989 0 0 0 255 255 255 255 
0.18119 -0.439422 -0.426989 0 0 0 255 255 255 255 
0.188253 -0.433364 -0.427552 0 0 0 255 255 255 255 
0.19521 -0.433364 -0.427552 0 0 0 255 255 255 255 
0.202167 -0.433364 -0.427552 0 0 0 255 255 255 255 
0.20957 -0.415191 -0.429241 0 0 0 255 255 255 255 
0.216559 -0.415191 -0.429241 0 0 0 255 255 255 255 
0.223548 -0.415191 -0.429241 0 0 0 255 255 255 255 
0.230717 -0.409133 -0.429803 0 0 0 255 255 255 255 
0.238099 -0.397017 -0.430929 0 0 0 255 255 255 255 
0.24512 -0.397017 -0.430929 0 0 0 255 255 255 255 
0.252353 -0.39096 -0.431492 0 0 0 255 255 255 255 
0.259607 -0.384902 -0.432055 0 0 0 255 255 255 255 
0.266883 -0.378844 -0.432618 0 0 0 255 255 255 255 
0.274424 -0.366728 -0.433744 0 0 0 255 255 255 255 
0.281498 -0.366728 -0.433744 0 0 0 255 255 255 255 
0.289103 -0.354613 -0.43487 0 0 0 255 255 255 255 
-0.5 -0.39096 -0.438524 0 0 0 255 255 255 255 
-0.492969 -0.39096 -0.438524 0 0 0 255 255 255 255 
-0.485937 -0.39096 -0.438524 0 0 0 255 255 255 255 
-0.478906 -0.39096 -0.438524 0 0 0 255 255 255 255 
-0.470993 -0.397017 -0.43795 0 0 0 255 255 255 255 
-0.463972 -0.397017 -0.43795 0 0 0 255 255 255 255 
-0.455231 -0.409133 -0.436803 0 0 0 255 255 255 255 
-0.448231 -0.409133 -0.436803 0 0 0 255 255 255 255 
-0.439554 -0.421248 -0.435656 0 0 0 255 255 255 255 
-0.432576 -0.421248 -0.435656 0 0 0 255 255 255 255 
-0.425597 -0.421248 -0.435656 0 0 0 255 255 255 255 
-0.418619 -0.421248 -0.435656 0 0 0 255 255 255 255 
-0.411641 -0.421248 -0.435656 0 0 0 255 255 255 255 
-0.403091 -0.433364 -0.434509 0 0 0 255 255 255 255 
-0.396134 -0.433364 -0.434509 0 0 0 255 255 255 255 
-0.388412 -0.439422 -0.433935 0 0 0 255 255 255 255 
-0.381466 -0.439422 -0.433935 0 0 0 255 255 255 255 
-0.373776 -0.44548 -0.433362 0 0 0 255 255 255 255 
-0.366107 -0.451537 -0.432788 0 0 0 255 255 255 255 
-0.359182 -0.451537 -0.432788 0 0 0 255 255 255 255 
-0.350834 -0.463653 -0.431641 0 0 0 255 255 255 255 
-0.34393 -0.463653 -0.431641 0 0 0 255 255 255 255 
-0.337026 -0.463653 -0.431641 0 0 0 255 255 255 255 
-0.330122 -0.463653 -0.431641 0 0 0 255 255 255 255 
-0.323218 -0.463653 -0.431641 0 0 0 255 255 255 255 
-0.315656 -0.469711 -0.431067 0 0 0 255 255 255 255 
-0.308763 -0.469711 -0.431067 0 0 0 255 255 255 255 
-0.301869 -0.469711 -0.431067 0 0 0 255 255 255 255 
-0.294976 -0.469711 -0.431067 0 0 0 255 255 255 255 
-0.288083 -0.469711 -0.431067 0 0 0 255 255 255 255 
-0.28119 -0.469711 -0.431067 0 0 0 255 255 255 255 
-0.273702 -0.475769 -0.430494 0 0 0 255 255 255 255 
-0.266819 -0.475769 -0.430494 0 0 0 255 255 255 255 
-0.259936 -0.475769 -0.430494 0 0 0 255 255 255 255 
-0.253054 -0.475769 -0.430494 0 0 0 255 255 255 255 
-0.246171 -0.475769 -0.430494 0 0 0 255 255 255 255 
-0.238747 -0.481826 -0.42992 0 0 0 255 255 255 255 
-0.231875 -0.481826 -0.42992 0 0 0 255 255 255 255 
-0.225003 -0.481826 -0.42992 0 0 0 255 255 255 255 
-0.218131 -0.481826 -0.42992 0 0 0 255 255 255 255 
-0.211259 -0.481826 -0.42992 0 0 0 255 255 255 255 
-0.204387 -0.481826 -0.42992 0 0 0 255 255 255 255 
-0.197515 -0.481826 -0.42992 0 0 0 255 255 255 255 
-0.190643 -0.481826 -0.42992 0 0 0 255 255 255 255 
-0.183314 -0.487884 -0.429347 0 0 0 255 255 255 255 
-0.176452 -0.487884 -0.429347 0 0 0 255 255 255 255 
-0.169591 -0.487884 -0.429347 0 0 0 255 255 255 255 
-0.16273 -0.487884 -0.429347 0 0 0 255 255 255 255 
-0.155868 -0.487884 -0.429347 0 0 0 255 255 255 255 
-0.149007 -0.487884 -0.429347 0 0 0 255 255 255 255 
-0.142145 -0.487884 -0.429347 0 0 0 255 255 255 255 
-0.134519 -0.5 -0.4282 0 0 0 255 255 255 255 
-0.127679 -0.5 -0.4282 0 0 0 255 255 255 255 
-0.121561 -0.487884 -0.429347 0 0 0 255 255 255 255 
-0.1147 -0.487884 -0.429347 0 0 0 255 255 255 255 
-0.107839 -0.487884 -0.429347 0 0 0 255 255 255 255 
-0.100977 -0.487884 -0.429347 0 0 0 255 255 255 255 
-0.0941158 -0.487884 -0.429347 0 0 0 255 255 255 255 
-0.0872544 -0.487884 -0.429347 0 0 0 255 255 255 255 
-0.080393 -0.487884 -0.429347 0 0 0 255 255 255 255 
-0.0735316 -0.487884 -0.429347 0 0 0 255 255 255 255 
-0.0666702 -0.487884 -0.429347 0 0 0 255 255 255 255 
-0.0598088 -0.487884 -0.429347 0 0 0 255 255 255 255 
-0.0529474 -0.487884 -0.429347 0 0 0 255 255 255 255 
-0.046086 -0.487884 -0.429347 0 0 0 255 255 255 255 
-0.0392246 -0.487884 -0.429347 0 0 0 255 255 255 255 
-0.0323632 -0.487884 -0.429347 0 0 0 255 255 255 255 
-0.0255018 -0.487884 -0.429347 0 0 0 255 255 255 255 
-0.0188423 -0.481826 -0.42992 0 0 0 255 255 255 255 
-0.0117791 -0.487884 -0.429347 0 0 0 255 255 255 255 
-0.00491768 -0.487884 -0.429347 0 0 0 255 255 255 255 
0.00194371 -0.487884 -0.429347 0 0 0 255 255 255 255 
0.00864583 -0.481826 -0.42992 0 0 0 255 255 255 255 
0.0155178 -0.481826 -0.42992 0 0 0 255 255 255 255 
0.0225279 -0.487884 -0.429347 0 0 0 255 255 255 255 
0.0293893 -0.487884 -0.429347 0 0 0 255 255 255 255 
0.0361339 -0.481826 -0.42992 0 0 0 255 255 255 255 
0.0430058 -0.481826 -0.42992 0 0 0 255 255 255 255 
0.0497823 -0.475769 -0.430494 0 0 0 255 255 255 255 
0.0566649 -0.475769 -0.430494 0 0 0 255 255 255 255 
0.0635476 -0.475769 -0.430494 0 0 0 255 255 255 255 
0.0704302 -0.475769 -0.430494 0 0 0 255 255 255 255 
0.0772597 -0.469711 -0.431067 0 0 0 255 255 255 255 
0.0841529 -0.469711 -0.431067 0 0 0 255 255 255 255 
0.0910462 -0.469711 -0.431067 0 0 0 255 255 255 255 
0.0979395 -0.469711 -0.431067 0 0 0 255 255 255 255 
0.104833 -0.469711 -0.431067 0 0 0 255 255 255 255 
0.111726 -0.463653 -0.431641 0 0 0 255 255 255 255 
0.11863 -0.463653 -0.431641 0 0 0 255 255 255 255 
0.125576 -0.451537 -0.432788 0 0 0 255 255 255 255 
0.132501 -0.451537 -0.432788 0 0 0 255 255 255 255 
0.139426 -0.451537 -0.432788 0 0 0 255 255 255 255 
0.146352 -0.451537 -0.432788 0 0 0 255 255 255 255 
0.15334 -0.44548 -0.433362 0 0 0 255 255 255 255 
0.160351 -0.439422 -0.433935 0 0 0 255 255 255 255 
0.167297 -0.439422 -0.433935 0 0 0 255 255 255 255 
0.174243 -0.439422 -0.433935 0 0 0 255 255 255 255 
0.181296 -0.433364 -0.434509 0 0 0 255 255 255 255 
0.188253 -0.433364 -0.434509 0 0 0 255 255 255 255 
0.195465 -0.421248 -0.435656 0 0 0 255 255 255 255 
0.202443 -0.421248 -0.435656 0 0 0 255 255 255 255 
0.20957 -0.415191 -0.436229 0 0 0 255 255 255 255 
0.216718 -0.409133 -0.436803 0 0 0 255 255 255 255 
0.223718 -0.409133 -0.436803 0 0 0 255 255 255 255 
0.231078 -0.397017 -0.43795 0 0 0 255 255 255 255 
0.238099 -0.397017 -0.43795 0 0 0 255 255 255 255 
0.245321 -0.39096 -0.438524 0 0 0 255 255 255 255 
0.252565 -0.384902 -0.439097 0 0 0 255 255 255 255 
0.25983 -0.378844 -0.439671 0 0 0 255 255 255 255 
0.26735 -0.366728 -0.440818 0 0 0 255 255 255 255 
-0.5 -0.39096 -0.445555 0 0 0 255 255 255 255 
-0.492055 -0.397017 -0.444971 0 0 0 255 255 255 255 
-0.485034 -0.397017 -0.444971 0 0 0 255 255 255 255 
-0.478014 -0.397017 -0.444971 0 0 0 255 255 255 255 
-0.470993 -0.397017 -0.444971 0 0 0 255 255 255 255 
-0.46223 -0.409133 -0.443802 0 0 0 255 255 255 255 
-0.455231 -0.409133 -0.443802 0 0 0 255 255 255 255 
-0.448231 -0.409133 -0.443802 0 0 0 255 255 255 255 
-0.439554 -0.421248 -0.442634 0 0 0 255 255 255 255 
-0.432576 -0.421248 -0.442634 0 0 0 255 255 255 255 
-0.425597 -0.421248 -0.442634 0 0 0 255 255 255 255 
-0.418619 -0.421248 -0.442634 0 0 0 255 255 255 255 
-0.411641 -0.421248 -0.442634 0 0 0 255 255 255 255 
-0.403091 -0.433364 -0.441466 0 0 0 255 255 255 255 
-0.396134 -0.433364 -0.441466 0 0 0 255 255 255 255 
-0.388412 -0.439422 -0.440882 0 0 0 255 255 255 255 
-0.381466 -0.439422 -0.440882 0 0 0 255 255 255 255 
-0.373776 -0.44548 -0.440297 0 0 0 255 255 255 255 
-0.366107 -0.451537 -0.439713 0 0 0 255 255 255 255 
-0.359182 -0.451537 -0.439713 0 0 0 255 255 255 255 
-0.350834 -0.463653 -0.438545 0 0 0 255 255 255 255 
-0.34393 -0.463653 -0.438545 0 0 0 255 255 255 255 
-0.337026 -0.463653 -0.438545 0 0 0 255 255 255 255 
-0.330122 -0.463653 -0.438545 0 0 0 255 255 255 255 
-0.323218 -0.463653 -0.438545 0 0 0 255 255 255 255 
-0.315656 -0.469711 -0.437961 0 0 0 255 255 255 255 
-0.308763 -0.469711 -0.437961 0 0 0 255 255 255 255 
-0.301869 -0.469711 -0.437961 0 0 0 255 255 255 255 
-0.294976 -0.469711 -0.437961 0 0 0 255 255 255 255 
-0.288083 -0.469711 -0.437961 0 0 0 255 255 255 255 
-0.28119 -0.469711 -0.437961 0 0 0 255 255 255 255 
-0.273702 -0.475769 -0.437377 0 0 0 255 255 255 255 
-0.266819 -0.475769 -0.437377 0 0 0 255 255 255 255 
-0.259936 -0.475769 -0.437377 0 0 0 255 255 255 255 
-0.253054 -0.475769 -0.437377 0 0 0 255 255 255 255 
-0.246171 -0.475769 -0.437377 0 0 0 255 255 255 255 
-0.238747 -0.481826 -0.436792 0 0 0 255 255 255 255 
-0.231875 -0.481826 -0.436792 0 0 0 255 255 255 255 
-0.225003 -0.481826 -0.436792 0 0 0 255 255 255 255 
-0.218131 -0.481826 -0.436792 0 0 0 255 255 255 255 
-0.211259 -0.481826 -0.436792 0 0 0 255 255 255 255 
-0.204387 -0.481826 -0.436792 0 0 0 255 255 255 255 
-0.197515 -0.481826 -0.436792 0 0 0 255 255 255 255 
-0.190643 -0.481826 -0.436792 0 0 0 255 255 255 255 
-0.183314 -0.487884 -0.436208 0 0 0 255 255 255 255 
-0.176452 -0.487884 -0.436208 0 0 0 255 255 255 255 
-0.169591 -0.487884 -0.436208 0 0 0 255 255 255 255 
-0.16273 -0.487884 -0.436208 0 0 0 255 255 255 255 
-0.155868 -0.487884 -0.436208 0 0 0 255 255 255 255 
-0.149007 -0.487884 -0.436208 0 0 0 255 255 255 255 
-0.142145 -0.487884 -0.436208 0 0 0 255 255 255 255 
-0.134519 -0.5 -0.43504 0 0 0 255 255 255 255 
-0.127679 -0.5 -0.43504 0 0 0 255 255 255 255 
-0.121561 -0.487884 -0.436208 0 0 0 255 255 255 255 
-0.1147 -0.487884 -0.436208 0 0 0 255 255 255 255 
-0.107839 -0.487884 -0.436208 0 0 0 255 255 255 255 
-0.100977 -0.487884 -0.436208 0 0 0 255 255 255 255 
-0.0941158 -0.487884 -0.436208 0 0 0 255 255 255 255 
-0.0872544 -0.487884 -0.436208 0 0 0 255 255 255 255 
-0.080393 -0.487884 -0.436208 0 0 0 255 255 255 255 
-0.0735316 -0.487884 -0.436208 0 0 0 255 255 255 255 
-0.0666702 -0.487884 -0.436208 0 0 0 255 255 255 255 
-0.0598088 -0.487884 -0.436208 0 0 0 255 255 255 255 
-0.0529474 -0.487884 -0.436208 0 0 0 255 255 255 255 
-0.046086 -0.487884 -0.436208 0 0 0 255 255 255 255 
-0.0392246 -0.487884 -0.436208 0 0 0 255 255 255 255 
-0.0323632 -0.487884 -0.436208 0 0 0 255 255 255 255 
-0.0255018 -0.487884 -0.436208 0 0 0 255 255 255 255 
-0.0188423 -0.481826 -0.436792 0 0 0 255 255 255 255 
-0.0117791 -0.487884 -0.436208 0 0 0 255 255 255 255 
-0.00491768 -0.487884 -0.436208 0 0 0 255 255 255 255 
0.00177377 -0.481826 -0.436792 0 0 0 255 255 255 255 
0.0088051 -0.487884 -0.436208 0 0 0 255 255 255 255 
0.0156665 -0.487884 -0.436208 0 0 0 255 255 255 255 
0.0225279 -0.487884 -0.436208 0 0 0 255 255 255 255 
0.0292618 -0.481826 -0.436792 0 0 0 255 255 255 255 
0.0361339 -0.481826 -0.436792 0 0 0 255 255 255 255 
0.0430058 -0.481826 -0.436792 0 0 0 255 255 255 255 
0.0497823 -0.475769 -0.437377 0 0 0 255 255 255 255 
0.0566649 -0.475769 -0.437377 0 0 0 255 255 255 255 
0.0635476 -0.475769 -0.437377 0 0 0 255 255 255 255 
0.0704302 -0.475769 -0.437377 0 0 0 255 255 255 255 
0.0772597 -0.469711 -0.437961 0 0 0 255 255 255 255 
0.0841529 -0.469711 -0.437961 0 0 0 255 255 255 255 
0.0910462 -0.469711 -0.437961 0 0 0 255 255 255 255 
0.0979395 -0.469711 -0.437961 0 0 0 255 255 255 255 
0.104833 -0.469711 -0.437961 0 0 0 255 255 255 255 
0.111726 -0.463653 -0.438545 0 0 0 255 255 255 255 
0.11863 -0.463653 -0.438545 0 0 0 255 255 255 255 
0.125576 -0.451537 -0.439713 0 0 0 255 255 255 255 
0.132501 -0.451537 -0.439713 0 0 0 255 255 255 255 
0.139469 -0.44548 -0.440297 0 0 0 255 255 255 255 
0.146405 -0.44548 -0.440297 0 0 0 255 255 255 255 
0.15334 -0.44548 -0.440297 0 0 0 255 255 255 255 
0.160351 -0.439422 -0.440882 0 0 0 255 255 255 255 
0.167297 -0.439422 -0.440882 0 0 0 255 255 255 255 
0.174243 -0.439422 -0.440882 0 0 0 255 255 255 255 
0.181296 -0.433364 -0.441466 0 0 0 255 255 255 255 
0.188253 -0.433364 -0.441466 0 0 0 255 255 255 255 
0.195465 -0.421248 -0.442634 0 0 0 255 255 255 255 
0.202581 -0.415191 -0.443218 0 0 0 255 255 255 255 
0.209719 -0.409133 -0.443802 0 0 0 255 255 255 255 
0.216718 -0.409133 -0.443802 0 0 0 255 255 255 255 
0.224057 -0.397017 -0.444971 0 0 0 255 255 255 255 
0.231259 -0.39096 -0.445555 0 0 0 255 255 255 255 
0.23829 -0.39096 -0.445555 0 0 0 255 255 255 255 
0.245321 -0.39096 -0.445555 0 0 0 255 255 255 255 
-0.492055 -0.397017 -0.451991 0 0 0 255 255 255 255 
-0.485034 -0.397017 -0.451991 0 0 0 255 255 255 255 
-0.478014 -0.397017 -0.451991 0 0 0 255 255 255 255 
-0.470993 -0.397017 -0.451991 0 0 0 255 255 255 255 
-0.46223 -0.409133 -0.450802 0 0 0 255 255 255 255 
-0.455231 -0.409133 -0.450802 0 0 0 255 255 255 255 
-0.448231 -0.409133 -0.450802 0 0 0 255 255 255 255 
-0.440393 -0.415191 -0.450207 0 0 0 255 255 255 255 
-0.433404 -0.415191 -0.450207 0 0 0 255 255 255 255 
-0.426415 -0.415191 -0.450207 0 0 0 255 255 255 255 
-0.418619 -0.421248 -0.449612 0 0 0 255 255 255 255 
-0.411641 -0.421248 -0.449612 0 0 0 255 255 255 255 
-0.404663 -0.421248 -0.449612 0 0 0 255 255 255 255 
-0.396134 -0.433364 -0.448423 0 0 0 255 255 255 255 
-0.389177 -0.433364 -0.448423 0 0 0 255 255 255 255 
-0.381466 -0.439422 -0.447828 0 0 0 255 255 255 255 
-0.373776 -0.44548 -0.447233 0 0 0 255 255 255 255 
-0.366107 -0.451537 -0.446638 0 0 0 255 255 255 255 
-0.359182 -0.451537 -0.446638 0 0 0 255 255 255 255 
-0.352257 -0.451537 -0.446638 0 0 0 255 255 255 255 
-0.34393 -0.463653 -0.445449 0 0 0 255 255 255 255 
-0.337026 -0.463653 -0.445449 0 0 0 255 255 255 255 
-0.330122 -0.463653 -0.445449 0 0 0 255 255 255 255 
-0.323218 -0.463653 -0.445449 0 0 0 255 255 255 255 
-0.316314 -0.463653 -0.445449 0 0 0 255 255 255 255 
-0.308763 -0.469711 -0.444854 0 0 0 255 255 255 255 
-0.301869 -0.469711 -0.444854 0 0 0 255 255 255 255 
-0.294976 -0.469711 -0.444854 0 0 0 255 255 255 255 
-0.288083 -0.469711 -0.444854 0 0 0 255 255 255 255 
-0.28119 -0.469711 -0.444854 0 0 0 255 255 255 255 
-0.274296 -0.469711 -0.444854 0 0 0 255 255 255 255 
-0.267403 -0.469711 -0.444854 0 0 0 255 255 255 255 
-0.26051 -0.469711 -0.444854 0 0 0 255 255 255 255 
-0.253617 -0.469711 -0.444854 0 0 0 255 255 255 255 
-0.246171 -0.475769 -0.444259 0 0 0 255 255 255 255 
-0.239288 -0.475769 -0.444259 0 0 0 255 255 255 255 
-0.231875 -0.481826 -0.443664 0 0 0 255 255 255 255 
-0.225003 -0.481826 -0.443664 0 0 0 255 255 255 255 
-0.218131 -0.481826 -0.443664 0 0 0 255 255 255 255 
-0.211259 -0.481826 -0.443664 0 0 0 255 255 255 255 
-0.204387 -0.481826 -0.443664 0 0 0 255 255 255 255 
-0.197515 -0.481826 -0.443664 0 0 0 255 255 255 255 
-0.190643 -0.481826 -0.443664 0 0 0 255 255 255 255 
-0.183314 -0.487884 -0.44307 0 0 0 255 255 255 255 
-0.176452 -0.487884 -0.44307 0 0 0 255 255 255 255 
-0.169591 -0.487884 -0.44307 0 0 0 255 255 255 255 
-0.16273 -0.487884 -0.44307 0 0 0 255 255 255 255 
-0.155868 -0.487884 -0.44307 0 0 0 255 255 255 255 
-0.149007 -0.487884 -0.44307 0 0 0 255 255 255 255 
-0.142145 -0.487884 -0.44307 0 0 0 255 255 255 255 
-0.135284 -0.487884 -0.44307 0 0 0 255 255 255 255 
-0.128423 -0.487884 -0.44307 0 0 0 255 255 255 255 
-0.121561 -0.487884 -0.44307 0 0 0 255 255 255 255 
-0.1147 -0.487884 -0.44307 0 0 0 255 255 255 255 
-0.107839 -0.487884 -0.44307 0 0 0 255 255 255 255 
-0.100977 -0.487884 -0.44307 0 0 0 255 255 255 255 
-0.0941158 -0.487884 -0.44307 0 0 0 255 255 255 255 
-0.0872544 -0.487884 -0.44307 0 0 0 255 255 255 255 
-0.080393 -0.487884 -0.44307 0 0 0 255 255 255 255 
-0.0735316 -0.487884 -0.44307 0 0 0 255 255 255 255 
-0.0666702 -0.487884 -0.44307 0 0 0 255 255 255 255 
-0.0598088 -0.487884 -0.44307 0 0 0 255 255 255 255 
-0.0529474 -0.487884 -0.44307 0 0 0 255 255 255 255 
-0.046086 -0.487884 -0.44307 0 0 0 255 255 255 255 
-0.0394583 -0.481826 -0.443664 0 0 0 255 255 255 255 
-0.0325863 -0.481826 -0.443664 0 0 0 255 255 255 255 
-0.0257143 -0.481826 -0.443664 0 0 0 255 255 255 255 
-0.0188423 -0.481826 -0.443664 0 0 0 255 255 255 255 
-0.0119703 -0.481826 -0.443664 0 0 0 255 255 255 255 
-0.00509822 -0.481826 -0.443664 0 0 0 255 255 255 255 
0.00177377 -0.481826 -0.443664 0 0 0 255 255 255 255 
0.0088051 -0.487884 -0.44307 0 0 0 255 255 255 255 
0.0156665 -0.487884 -0.44307 0 0 0 255 255 255 255 
0.0225279 -0.487884 -0.44307 0 0 0 255 255 255 255 
0.0292618 -0.481826 -0.443664 0 0 0 255 255 255 255 
0.036017 -0.475769 -0.444259 0 0 0 255 255 255 255 
0.0428997 -0.475769 -0.444259 0 0 0 255 255 255 255 
0.0497823 -0.475769 -0.444259 0 0 0 255 255 255 255 
0.0566649 -0.475769 -0.444259 0 0 0 255 255 255 255 
0.0634732 -0.469711 -0.444854 0 0 0 255 255 255 255 
0.0703664 -0.469711 -0.444854 0 0 0 255 255 255 255 
0.0772597 -0.469711 -0.444854 0 0 0 255 255 255 255 
0.0841529 -0.469711 -0.444854 0 0 0 255 255 255 255 
0.0910462 -0.469711 -0.444854 0 0 0 255 255 255 255 
0.0979395 -0.469711 -0.444854 0 0 0 255 255 255 255 
0.104833 -0.469711 -0.444854 0 0 0 255 255 255 255 
0.111726 -0.463653 -0.445449 0 0 0 255 255 255 255 
0.11863 -0.463653 -0.445449 0 0 0 255 255 255 255 
0.125576 -0.451537 -0.446638 0 0 0 255 255 255 255 
0.132533 -0.44548 -0.447233 0 0 0 255 255 255 255 
0.139469 -0.44548 -0.447233 0 0 0 255 255 255 255 
0.146405 -0.44548 -0.447233 0 0 0 255 255 255 255 
0.153404 -0.439422 -0.447828 0 0 0 255 255 255 255 
0.160351 -0.439422 -0.447828 0 0 0 255 255 255 255 
0.167297 -0.439422 -0.447828 0 0 0 255 255 255 255 
0.174339 -0.433364 -0.448423 0 0 0 255 255 255 255 
0.181296 -0.433364 -0.448423 0 0 0 255 255 255 255 
0.188253 -0.433364 -0.448423 0 0 0 255 255 255 255 
0.195465 -0.421248 -0.449612 0 0 0 255 255 255 255 
0.202719 -0.409133 -0.450802 0 0 0 255 255 255 255 
0.209719 -0.409133 -0.450802 0 0 0 255 255 255 255 
0.217037 -0.397017 -0.451991 0 0 0 255 255 255 255 
0.224057 -0.397017 -0.451991 0 0 0 255 255 255 255 
0.231259 -0.39096 -0.452586 0 0 0 255 255 255 255 
-0.485034 -0.397017 -0.459012 0 0 0 255 255 255 255 
-0.478014 -0.397017 -0.459012 0 0 0 255 255 255 255 
-0.470993 -0.397017 -0.459012 0 0 0 255 255 255 255 
-0.46223 -0.409133 -0.457801 0 0 0 255 255 255 255 
-0.455231 -0.409133 -0.457801 0 0 0 255 255 255 255 
-0.448231 -0.409133 -0.457801 0 0 0 255 255 255 255 
-0.440393 -0.415191 -0.457196 0 0 0 255 255 255 255 
-0.433404 -0.415191 -0.457196 0 0 0 255 255 255 255 
-0.426415 -0.415191 -0.457196 0 0 0 255 255 255 255 
-0.418619 -0.421248 -0.456591 0 0 0 255 255 255 255 
-0.411641 -0.421248 -0.456591 0 0 0 255 255 255 255 
-0.404663 -0.421248 -0.456591 0 0 0 255 255 255 255 
-0.396134 -0.433364 -0.45538 0 0 0 255 255 255 255 
-0.389177 -0.433364 -0.45538 0 0 0 255 255 255 255 
-0.381466 -0.439422 -0.454774 0 0 0 255 255 255 255 
-0.373776 -0.44548 -0.454169 0 0 0 255 255 255 255 
-0.366107 -0.451537 -0.453563 0 0 0 255 255 255 255 
-0.359182 -0.451537 -0.453563 0 0 0 255 255 255 255 
-0.352257 -0.451537 -0.453563 0 0 0 255 255 255 255 
-0.345332 -0.451537 -0.453563 0 0 0 255 255 255 255 
-0.337026 -0.463653 -0.452353 0 0 0 255 255 255 255 
-0.330122 -0.463653 -0.452353 0 0 0 255 255 255 255 
-0.323218 -0.463653 -0.452353 0 0 0 255 255 255 255 
-0.316314 -0.463653 -0.452353 0 0 0 255 255 255 255 
-0.30941 -0.463653 -0.452353 0 0 0 255 255 255 255 
-0.302507 -0.463653 -0.452353 0 0 0 255 255 255 255 
-0.294976 -0.469711 -0.451747 0 0 0 255 255 255 255 
-0.288083 -0.469711 -0.451747 0 0 0 255 255 255 255 
-0.28119 -0.469711 -0.451747 0 0 0 255 255 255 255 
-0.274296 -0.469711 -0.451747 0 0 0 255 255 255 255 
-0.267403 -0.469711 -0.451747 0 0 0 255 255 255 255 
-0.26051 -0.469711 -0.451747 0 0 0 255 255 255 255 
-0.253617 -0.469711 -0.451747 0 0 0 255 255 255 255 
-0.246171 -0.475769 -0.451142 0 0 0 255 255 255 255 
-0.239288 -0.475769 -0.451142 0 0 0 255 255 255 255 
-0.232406 -0.475769 -0.451142 0 0 0 255 255 255 255 
-0.225003 -0.481826 -0.450536 0 0 0 255 255 255 255 
-0.218131 -0.481826 -0.450536 0 0 0 255 255 255 255 
-0.211259 -0.481826 -0.450536 0 0 0 255 255 255 255 
-0.204387 -0.481826 -0.450536 0 0 0 255 255 255 255 
-0.197515 -0.481826 -0.450536 0 0 0 255 255 255 255 
-0.190643 -0.481826 -0.450536 0 0 0 255 255 255 255 
-0.183771 -0.481826 -0.450536 0 0 0 255 255 255 255 
-0.176899 -0.481826 -0.450536 0 0 0 255 255 255 255 
-0.170027 -0.481826 -0.450536 0 0 0 255 255 255 255 
-0.16273 -0.487884 -0.449931 0 0 0 255 255 255 255 
-0.155868 -0.487884 -0.449931 0 0 0 255 255 255 255 
-0.149007 -0.487884 -0.449931 0 0 0 255 255 255 255 
-0.142145 -0.487884 -0.449931 0 0 0 255 255 255 255 
-0.135284 -0.487884 -0.449931 0 0 0 255 255 255 255 
-0.128423 -0.487884 -0.449931 0 0 0 255 255 255 255 
-0.121561 -0.487884 -0.449931 0 0 0 255 255 255 255 
-0.1147 -0.487884 -0.449931 0 0 0 255 255 255 255 
-0.107839 -0.487884 -0.449931 0 0 0 255 255 255 255 
-0.100977 -0.487884 -0.449931 0 0 0 255 255 255 255 
-0.0941158 -0.487884 -0.449931 0 0 0 255 255 255 255 
-0.0872544 -0.487884 -0.449931 0 0 0 255 255 255 255 
-0.080393 -0.487884 -0.449931 0 0 0 255 255 255 255 
-0.0735316 -0.487884 -0.449931 0 0 0 255 255 255 255 
-0.0666702 -0.487884 -0.449931 0 0 0 255 255 255 255 
-0.0598088 -0.487884 -0.449931 0 0 0 255 255 255 255 
-0.0529474 -0.487884 -0.449931 0 0 0 255 255 255 255 
-0.046086 -0.487884 -0.449931 0 0 0 255 255 255 255 
-0.0394583 -0.481826 -0.450536 0 0 0 255 255 255 255 
-0.0325863 -0.481826 -0.450536 0 0 0 255 255 255 255 
-0.0257143 -0.481826 -0.450536 0 0 0 255 255 255 255 
-0.0188423 -0.481826 -0.450536 0 0 0 255 255 255 255 
-0.0119703 -0.481826 -0.450536 0 0 0 255 255 255 255 
-0.00509822 -0.481826 -0.450536 0 0 0 255 255 255 255 
0.00177377 -0.481826 -0.450536 0 0 0 255 255 255 255 
0.00864583 -0.481826 -0.450536 0 0 0 255 255 255 255 
0.0155178 -0.481826 -0.450536 0 0 0 255 255 255 255 
0.0223898 -0.481826 -0.450536 0 0 0 255 255 255 255 
0.0292618 -0.481826 -0.450536 0 0 0 255 255 255 255 
0.036017 -0.475769 -0.451142 0 0 0 255 255 255 255 
0.0427935 -0.469711 -0.451747 0 0 0 255 255 255 255 
0.0496867 -0.469711 -0.451747 0 0 0 255 255 255 255 
0.0565799 -0.469711 -0.451747 0 0 0 255 255 255 255 
0.0634732 -0.469711 -0.451747 0 0 0 255 255 255 255 
0.0703664 -0.469711 -0.451747 0 0 0 255 255 255 255 
0.0772597 -0.469711 -0.451747 0 0 0 255 255 255 255 
0.0841529 -0.469711 -0.451747 0 0 0 255 255 255 255 
0.0910462 -0.469711 -0.451747 0 0 0 255 255 255 255 
0.0979182 -0.463653 -0.452353 0 0 0 255 255 255 255 
0.104822 -0.463653 -0.452353 0 0 0 255 255 255 255 
0.111726 -0.463653 -0.452353 0 0 0 255 255 255 255 
0.11863 -0.463653 -0.452353 0 0 0 255 255 255 255 
0.125597 -0.44548 -0.454169 0 0 0 255 255 255 255 
0.132533 -0.44548 -0.454169 0 0 0 255 255 255 255 
0.139469 -0.44548 -0.454169 0 0 0 255 255 255 255 
0.146458 -0.439422 -0.454774 0 0 0 255 255 255 255 
0.153404 -0.439422 -0.454774 0 0 0 255 255 255 255 
0.160351 -0.439422 -0.454774 0 0 0 255 255 255 255 
0.167382 -0.433364 -0.45538 0 0 0 255 255 255 255 
0.174339 -0.433364 -0.45538 0 0 0 255 255 255 255 
0.181508 -0.421248 -0.456591 0 0 0 255 255 255 255 
0.188487 -0.421248 -0.456591 0 0 0 255 255 255 255 
0.19572 -0.409133 -0.457801 0 0 0 255 255 255 255 
-0.478906 -0.39096 -0.466649 0 0 0 255 255 255 255 
-0.471875 -0.39096 -0.466649 0 0 0 255 255 255 255 
-0.46223 -0.409133 -0.464801 0 0 0 255 255 255 255 
-0.455231 -0.409133 -0.464801 0 0 0 255 255 255 255 
-0.448231 -0.409133 -0.464801 0 0 0 255 255 255 255 
-0.441232 -0.409133 -0.464801 0 0 0 255 255 255 255 
-0.433404 -0.415191 -0.464185 0 0 0 255 255 255 255 
-0.426415 -0.415191 -0.464185 0 0 0 255 255 255 255 
-0.418619 -0.421248 -0.463569 0 0 0 255 255 255 255 
-0.411641 -0.421248 -0.463569 0 0 0 255 255 255 255 
-0.404663 -0.421248 -0.463569 0 0 0 255 255 255 255 
-0.397684 -0.421248 -0.463569 0 0 0 255 255 255 255 
-0.389177 -0.433364 -0.462337 0 0 0 255 255 255 255 
-0.381466 -0.439422 -0.461721 0 0 0 255 255 255 255 
-0.373776 -0.44548 -0.461105 0 0 0 255 255 255 255 
-0.36684 -0.44548 -0.461105 0 0 0 255 255 255 255 
-0.359182 -0.451537 -0.460489 0 0 0 255 255 255 255 
-0.352257 -0.451537 -0.460489 0 0 0 255 255 255 255 
-0.345332 -0.451537 -0.460489 0 0 0 255 255 255 255 
-0.338407 -0.451537 -0.460489 0 0 0 255 255 255 255 
-0.330122 -0.463653 -0.459256 0 0 0 255 255 255 255 
-0.323218 -0.463653 -0.459256 0 0 0 255 255 255 255 
-0.316314 -0.463653 -0.459256 0 0 0 255 255 255 255 
-0.30941 -0.463653 -0.459256 0 0 0 255 255 255 255 
-0.302507 -0.463653 -0.459256 0 0 0 255 255 255 255 
-0.294976 -0.469711 -0.45864 0 0 0 255 255 255 255 
-0.288083 -0.469711 -0.45864 0 0 0 255 255 255 255 
-0.28119 -0.469711 -0.45864 0 0 0 255 255 255 255 
-0.274891 -0.463653 -0.459256 0 0 0 255 255 255 255 
-0.267403 -0.469711 -0.45864 0 0 0 255 255 255 255 
-0.26051 -0.469711 -0.45864 0 0 0 255 255 255 255 
-0.253617 -0.469711 -0.45864 0 0 0 255 255 255 255 
-0.246723 -0.469711 -0.45864 0 0 0 255 255 255 255 
-0.23983 -0.469711 -0.45864 0 0 0 255 255 255 255 
-0.232406 -0.475769 -0.458024 0 0 0 255 255 255 255 
-0.225523 -0.475769 -0.458024 0 0 0 255 255 255 255 
-0.218131 -0.481826 -0.457408 0 0 0 255 255 255 255 
-0.211259 -0.481826 -0.457408 0 0 0 255 255 255 255 
-0.204387 -0.481826 -0.457408 0 0 0 255 255 255 255 
-0.197515 -0.481826 -0.457408 0 0 0 255 255 255 255 
-0.190643 -0.481826 -0.457408 0 0 0 255 255 255 255 
-0.183314 -0.487884 -0.456792 0 0 0 255 255 255 255 
-0.176452 -0.487884 -0.456792 0 0 0 255 255 255 255 
-0.170027 -0.481826 -0.457408 0 0 0 255 255 255 255 
-0.163155 -0.481826 -0.457408 0 0 0 255 255 255 255 
-0.155868 -0.487884 -0.456792 0 0 0 255 255 255 255 
-0.149007 -0.487884 -0.456792 0 0 0 255 255 255 255 
-0.142145 -0.487884 -0.456792 0 0 0 255 255 255 255 
-0.135284 -0.487884 -0.456792 0 0 0 255 255 255 255 
-0.128423 -0.487884 -0.456792 0 0 0 255 255 255 255 
-0.121561 -0.487884 -0.456792 0 0 0 255 255 255 255 
-0.1147 -0.487884 -0.456792 0 0 0 255 255 255 255 
-0.107839 -0.487884 -0.456792 0 0 0 255 255 255 255 
-0.100977 -0.487884 -0.456792 0 0 0 255 255 255 255 
-0.0941158 -0.487884 -0.456792 0 0 0 255 255 255 255 
-0.0872544 -0.487884 -0.456792 0 0 0 255 255 255 255 
-0.080393 -0.487884 -0.456792 0 0 0 255 255 255 255 
-0.0735316 -0.487884 -0.456792 0 0 0 255 255 255 255 
-0.0666702 -0.487884 -0.456792 0 0 0 255 255 255 255 
-0.0598088 -0.487884 -0.456792 0 0 0 255 255 255 255 
-0.0529474 -0.487884 -0.456792 0 0 0 255 255 255 255 
-0.0463303 -0.481826 -0.457408 0 0 0 255 255 255 255 
-0.0394583 -0.481826 -0.457408 0 0 0 255 255 255 255 
-0.0325863 -0.481826 -0.457408 0 0 0 255 255 255 255 
-0.0257143 -0.481826 -0.457408 0 0 0 255 255 255 255 
-0.019044 -0.475769 -0.458024 0 0 0 255 255 255 255 
-0.0121614 -0.475769 -0.458024 0 0 0 255 255 255 255 
-0.0052788 -0.475769 -0.458024 0 0 0 255 255 255 255 
0.00177377 -0.481826 -0.457408 0 0 0 255 255 255 255 
0.00864583 -0.481826 -0.457408 0 0 0 255 255 255 255 
0.0155178 -0.481826 -0.457408 0 0 0 255 255 255 255 
0.0223898 -0.481826 -0.457408 0 0 0 255 255 255 255 
0.0291344 -0.475769 -0.458024 0 0 0 255 255 255 255 
0.036017 -0.475769 -0.458024 0 0 0 255 255 255 255 
0.0427935 -0.469711 -0.45864 0 0 0 255 255 255 255 
0.0496867 -0.469711 -0.45864 0 0 0 255 255 255 255 
0.0565799 -0.469711 -0.45864 0 0 0 255 255 255 255 
0.0633988 -0.463653 -0.459256 0 0 0 255 255 255 255 
0.0703027 -0.463653 -0.459256 0 0 0 255 255 255 255 
0.0772066 -0.463653 -0.459256 0 0 0 255 255 255 255 
0.0841105 -0.463653 -0.459256 0 0 0 255 255 255 255 
0.0910144 -0.463653 -0.459256 0 0 0 255 255 255 255 
0.0979182 -0.463653 -0.459256 0 0 0 255 255 255 255 
0.104822 -0.463653 -0.459256 0 0 0 255 255 255 255 
0.111726 -0.451537 -0.460489 0 0 0 255 255 255 255 
0.118651 -0.451537 -0.460489 0 0 0 255 255 255 255 
0.125576 -0.451537 -0.460489 0 0 0 255 255 255 255 
0.132501 -0.451537 -0.460489 0 0 0 255 255 255 255 
0.139469 -0.44548 -0.461105 0 0 0 255 255 255 255 
0.146405 -0.44548 -0.461105 0 0 0 255 255 255 255 
0.153404 -0.439422 -0.461721 0 0 0 255 255 255 255 
0.160351 -0.439422 -0.461721 0 0 0 255 255 255 255 
0.167382 -0.433364 -0.462337 0 0 0 255 255 255 255 
0.174339 -0.433364 -0.462337 0 0 0 255 255 255 255 
0.181508 -0.421248 -0.463569 0 0 0 255 255 255 255 
-0.463972 -0.397017 -0.473054 0 0 0 255 255 255 255 
-0.456952 -0.397017 -0.473054 0 0 0 255 255 255 255 
-0.449931 -0.397017 -0.473054 0 0 0 255 255 255 255 
-0.44291 -0.397017 -0.473054 0 0 0 255 255 255 255 
-0.43589 -0.397017 -0.473054 0 0 0 255 255 255 255 
-0.426415 -0.415191 -0.471174 0 0 0 255 255 255 255 
-0.419426 -0.415191 -0.471174 0 0 0 255 255 255 255 
-0.411641 -0.421248 -0.470547 0 0 0 255 255 255 255 
-0.404663 -0.421248 -0.470547 0 0 0 255 255 255 255 
-0.397684 -0.421248 -0.470547 0 0 0 255 255 255 255 
-0.389177 -0.433364 -0.469294 0 0 0 255 255 255 255 
-0.381466 -0.439422 -0.468667 0 0 0 255 255 255 255 
-0.373776 -0.44548 -0.46804 0 0 0 255 255 255 255 
-0.36684 -0.44548 -0.46804 0 0 0 255 255 255 255 
-0.359182 -0.451537 -0.467414 0 0 0 255 255 255 255 
-0.352257 -0.451537 -0.467414 0 0 0 255 255 255 255 
-0.345332 -0.451537 -0.467414 0 0 0 255 255 255 255 
-0.338407 -0.451537 -0.467414 0 0 0 255 255 255 255 
-0.330122 -0.463653 -0.46616 0 0 0 255 255 255 255 
-0.323218 -0.463653 -0.46616 0 0 0 255 255 255 255 
-0.316314 -0.463653 -0.46616 0 0 0 255 255 255 255 
-0.30941 -0.463653 -0.46616 0 0 0 255 255 255 255 
-0.302507 -0.463653 -0.46616 0 0 0 255 255 255 255 
-0.295603 -0.463653 -0.46616 0 0 0 255 255 255 255 
-0.288083 -0.469711 -0.465534 0 0 0 255 255 255 255 
-0.28119 -0.469711 -0.465534 0 0 0 255 255 255 255 
-0.274891 -0.463653 -0.46616 0 0 0 255 255 255 255 
-0.267403 -0.469711 -0.465534 0 0 0 255 255 255 255 
-0.26051 -0.469711 -0.465534 0 0 0 255 255 255 255 
-0.253617 -0.469711 -0.465534 0 0 0 255 255 255 255 
-0.246723 -0.469711 -0.465534 0 0 0 255 255 255 255 
-0.23983 -0.469711 -0.465534 0 0 0 255 255 255 255 
-0.232406 -0.475769 -0.464907 0 0 0 255 255 255 255 
-0.225003 -0.481826 -0.46428 0 0 0 255 255 255 255 
-0.218131 -0.481826 -0.46428 0 0 0 255 255 255 255 
-0.211259 -0.481826 -0.46428 0 0 0 255 255 255 255 
-0.204387 -0.481826 -0.46428 0 0 0 255 255 255 255 
-0.197515 -0.481826 -0.46428 0 0 0 255 255 255 255 
-0.190643 -0.481826 -0.46428 0 0 0 255 255 255 255 
-0.183314 -0.487884 -0.463654 0 0 0 255 255 255 255 
-0.176452 -0.487884 -0.463654 0 0 0 255 255 255 255 
-0.170027 -0.481826 -0.46428 0 0 0 255 255 255 255 
-0.163155 -0.481826 -0.46428 0 0 0 255 255 255 255 
-0.155868 -0.487884 -0.463654 0 0 0 255 255 255 255 
-0.149007 -0.487884 -0.463654 0 0 0 255 255 255 255 
-0.142145 -0.487884 -0.463654 0 0 0 255 255 255 255 
-0.135284 -0.487884 -0.463654 0 0 0 255 255 255 255 
-0.128423 -0.487884 -0.463654 0 0 0 255 255 255 255 
-0.121561 -0.487884 -0.463654 0 0 0 255 255 255 255 
-0.1147 -0.487884 -0.463654 0 0 0 255 255 255 255 
-0.107839 -0.487884 -0.463654 0 0 0 255 255 255 255 
-0.100977 -0.487884 -0.463654 0 0 0 255 255 255 255 
-0.0941158 -0.487884 -0.463654 0 0 0 255 255 255 255 
-0.0872544 -0.487884 -0.463654 0 0 0 255 255 255 255 
-0.080393 -0.487884 -0.463654 0 0 0 255 255 255 255 
-0.0738184 -0.481826 -0.46428 0 0 0 255 255 255 255 
-0.0669464 -0.481826 -0.46428 0 0 0 255 255 255 255 
-0.0600743 -0.481826 -0.46428 0 0 0 255 255 255 255 
-0.0532023 -0.481826 -0.46428 0 0 0 255 255 255 255 
-0.0463303 -0.481826 -0.46428 0 0 0 255 255 255 255 
-0.0394583 -0.481826 -0.46428 0 0 0 255 255 255 255 
-0.0328093 -0.475769 -0.464907 0 0 0 255 255 255 255 
-0.0259267 -0.475769 -0.464907 0 0 0 255 255 255 255 
-0.0192459 -0.469711 -0.465534 0 0 0 255 255 255 255 
-0.0123526 -0.469711 -0.465534 0 0 0 255 255 255 255 
-0.00545934 -0.469711 -0.465534 0 0 0 255 255 255 255 
0.00160384 -0.475769 -0.464907 0 0 0 255 255 255 255 
0.00848651 -0.475769 -0.464907 0 0 0 255 255 255 255 
0.0153691 -0.475769 -0.464907 0 0 0 255 255 255 255 
0.0222517 -0.475769 -0.464907 0 0 0 255 255 255 255 
0.0291344 -0.475769 -0.464907 0 0 0 255 255 255 255 
0.036017 -0.475769 -0.464907 0 0 0 255 255 255 255 
0.0427935 -0.469711 -0.465534 0 0 0 255 255 255 255 
0.0496867 -0.469711 -0.465534 0 0 0 255 255 255 255 
0.0565799 -0.469711 -0.465534 0 0 0 255 255 255 255 
0.0633988 -0.463653 -0.46616 0 0 0 255 255 255 255 
0.0703027 -0.463653 -0.46616 0 0 0 255 255 255 255 
0.0772066 -0.463653 -0.46616 0 0 0 255 255 255 255 
0.0841105 -0.463653 -0.46616 0 0 0 255 255 255 255 
0.0910144 -0.463653 -0.46616 0 0 0 255 255 255 255 
0.0979182 -0.463653 -0.46616 0 0 0 255 255 255 255 
0.104822 -0.463653 -0.46616 0 0 0 255 255 255 255 
0.111726 -0.451537 -0.467414 0 0 0 255 255 255 255 
0.118651 -0.451537 -0.467414 0 0 0 255 255 255 255 
0.125576 -0.451537 -0.467414 0 0 0 255 255 255 255 
0.132501 -0.451537 -0.467414 0 0 0 255 255 255 255 
0.139469 -0.44548 -0.46804 0 0 0 255 255 255 255 
0.146405 -0.44548 -0.46804 0 0 0 255 255 255 255 
0.153404 -0.439422 -0.468667 0 0 0 255 255 255 255 
0.160351 -0.439422 -0.468667 0 0 0 255 255 255 255 
0.167382 -0.433364 -0.469294 0 0 0 255 255 255 255 
-0.412438 -0.415191 -0.478162 0 0 0 255 255 255 255 
-0.405449 -0.415191 -0.478162 0 0 0 255 255 255 255 
-0.397684 -0.421248 -0.477525 0 0 0 255 255 255 255 
-0.389177 -0.433364 -0.476251 0 0 0 255 255 255 255 
-0.381466 -0.439422 -0.475613 0 0 0 255 255 255 255 
-0.373776 -0.44548 -0.474976 0 0 0 255 255 255 255 
-0.36684 -0.44548 -0.474976 0 0 0 255 255 255 255 
-0.359182 -0.451537 -0.474339 0 0 0 255 255 255 255 
-0.352257 -0.451537 -0.474339 0 0 0 255 255 255 255 
-0.345332 -0.451537 -0.474339 0 0 0 255 255 255 255 
-0.338407 -0.451537 -0.474339 0 0 0 255 255 255 255 
-0.331482 -0.451537 -0.474339 0 0 0 255 255 255 255 
-0.324557 -0.451537 -0.474339 0 0 0 255 255 255 255 
-0.317631 -0.451537 -0.474339 0 0 0 255 255 255 255 
-0.30941 -0.463653 -0.473064 0 0 0 255 255 255 255 
-0.302507 -0.463653 -0.473064 0 0 0 255 255 255 255 
-0.295603 -0.463653 -0.473064 0 0 0 255 255 255 255 
-0.288699 -0.463653 -0.473064 0 0 0 255 255 255 255 
-0.281795 -0.463653 -0.473064 0 0 0 255 255 255 255 
-0.274891 -0.463653 -0.473064 0 0 0 255 255 255 255 
