ply
format ascii 1.0
comment PCL generated
element vertex 1473
property float x
property float y
property float z
element camera 0
property float view_px
property float view_py
property float view_pz
property float x_axisx
property float x_axisy
property float x_axisz
property float y_axisx
property float y_axisy
property float y_axisz
property float z_axisx
property float z_axisy
property float z_axisz
property float focal
property float scalex
property float scaley
property float centerx
property float centery
property int viewportx
property int viewporty
property float k1
property float k2
end_header
0.062112 -0.22169 -0.239834
0.065922 -0.21208499 -0.242339
0.069805004 -0.20254099 -0.244867
0.073395997 -0.192747 -0.24730401
0.076810002 -0.18280201 -0.249687
0.080224 -0.172856 -0.25207001
0.083603002 -0.16288 -0.25444201
0.086960003 -0.152887 -0.25680801
0.090317003 -0.142892 -0.25917301
0.093617998 -0.13285001 -0.261522
0.096794002 -0.122701 -0.263832
0.099970996 -0.112552 -0.26614201
0.103147 -0.102403 -0.26845199
0.106324 -0.092253998 -0.270762
0.109486 -0.082093 -0.27306801
0.112644 -0.071928002 -0.275372
0.115802 -0.061764002 -0.277677
0.118804 -0.051465999 -0.27993301
0.121254 -0.040695999 -0.28202
0.123705 -0.029924 -0.284107
0.126155 -0.019153999 -0.286194
0.128243 -0.008072 -0.28817001
0.12934899 0.003849 -0.28984401
0.130456 0.015771 -0.29151699
0.131561 0.027691999 -0.29319099
0.13266701 0.039615002 -0.294864
0.133819 0.051498 -0.296552
0.136096 0.062415998 -0.298585
0.14171501 0.070473 -0.30164599
0.148586 0.077458002 -0.30509201
0.155357 0.084528998 -0.30850801
0.161972 0.091734 -0.31187499
0.168347 0.099143997 -0.31516799
0.174569 0.106684 -0.318414
0.18074 0.114269 -0.32164499
0.186196 0.122466 -0.32465601
0.191608 0.13070001 -0.32765299
0.197266 0.138723 -0.330726
0.20249 0.147119 -0.33366501
0.207543 0.155661 -0.33655199
0.212493 0.16429099 -0.33940801
0.21738601 0.17297 -0.34224501
0.222279 0.181649 -0.345083
0.22670799 0.190725 -0.34777799
0.23109099 0.19983999 -0.35045999
0.235167 0.20921899 -0.353046
0.238934 0.218862 -0.35553801
0.242615 0.228579 -0.35800299
0.246038 0.238517 -0.36038899
0.248871 0.24896 -0.362593
0.25170401 0.25940299 -0.36479801
0.25442699 0.26993999 -0.36696801
0.25619 0.281299 -0.368844
0.25795999 0.29265299 -0.370722
0.259707 0.30402499 -0.37259299
0.25967699 0.31692001 -0.373916
0.25958699 0.32986599 -0.37522301
0.25875899 0.34344399 -0.376302
0.256998 0.357822 -0.37709501
0.25283 0.37426001 -0.37714601
0.242763 0.39574999 -0.37538499
0.017811 -0.98585099 -0.154208
0.043843001 -0.99527597 -0.163544
0.058316998 -0.99480098 -0.169328
0.073211998 -0.99468702 -0.17524
0.088053003 -0.994528 -0.181136
0.102877 -0.994353 -0.18702701
0.114081 -0.99107802 -0.19180501
0.126049 -0.98845798 -0.196817
0.13751499 -0.98540902 -0.201676
0.15013 -0.98334301 -0.20688801
0.16215999 -0.98077601 -0.21191899
0.111135 -0.92421001 -0.197567
0.111386 -0.91155702 -0.19897801
0.108458 -0.89617997 -0.199412
0.104788 -0.88016897 -0.199617
0.094201997 -0.85823399 -0.197696
0.083177999 -0.83592403 -0.195641
0.073034003 -0.814367 -0.193857
0.064571001 -0.79425102 -0.192588
0.053385999 -0.77180499 -0.190484
0.033677001 -0.74205601 -0.18575899
-0.64974803 0.177799 -0.010343
-0.64149803 0.183603 -0.014212
-0.63723397 0.19282 -0.016858
-0.63312602 0.202171 -0.019454001
-0.62558299 0.208582 -0.023105999
-0.62135202 0.21782701 -0.025741
-0.61712903 0.22708 -0.028372001
-0.61219698 0.235725 -0.031222001
-0.60703599 0.244174 -0.034141999
-0.60161901 0.25240499 -0.037140999
-0.59596097 0.26042899 -0.040213998
0.020319 -0.25446099 -0.230997
0.027842 -0.248035 -0.234643
0.033976 -0.24042 -0.23786201
0.040001001 -0.23271 -0.24104799
0.044295002 -0.223517 -0.24370199
0.048587002 -0.214325 -0.246354
0.054411002 -0.206442 -0.249478
0.058525 -0.197097 -0.25207701
0.062638 -0.18775 -0.254675
0.066752002 -0.178404 -0.257274
0.070839003 -0.169034 -0.259864
0.074291997 -0.159123 -0.26225799
0.077624001 -0.14910699 -0.26461601
0.080954 -0.139089 -0.26697299
0.084284998 -0.12907299 -0.26933199
0.087615997 -0.119057 -0.271689
0.090947002 -0.109041 -0.27404699
0.094039001 -0.098819003 -0.27632999
0.097089998 -0.088563003 -0.278602
0.10014 -0.078305997 -0.280873
0.103173 -0.068033002 -0.28313899
0.10619 -0.057748001 -0.2854
0.109208 -0.047463998 -0.287662
0.111605 -0.036646999 -0.28973201
0.113865 -0.025713 -0.29176101
0.11611 -0.014767 -0.29378399
0.118029 -0.003541 -0.29570699
0.119303 0.0082369996 -0.29743299
0.120575 0.020016 -0.29915801
0.121848 0.031794 -0.300883
0.122741 0.043899 -0.30249101
0.124 0.055690002 -0.304212
0.126128 0.066735998 -0.3062
0.130448 0.075906999 -0.30886099
0.1371 0.083079003 -0.31224
0.14375199 0.090253003 -0.31561801
0.15040401 0.097424999 -0.31899601
0.15701699 0.104631 -0.32236299
0.163233 0.112176 -0.32560799
0.169302 0.119848 -0.328807
0.175439 0.127461 -0.332028
0.180935 0.13562401 -0.335051
0.18652 0.143711 -0.33809999
0.19195101 0.15192799 -0.341104
0.197203 0.160301 -0.34405199
0.202269 0.16883101 -0.34694299
0.206964 0.177679 -0.34972
0.211481 0.186681 -0.352442
0.21581 0.195842 -0.35510701
0.22010399 0.205034 -0.357761
0.223855 0.214692 -0.36024699
0.227456 0.22447699 -0.36268699
0.23094 0.23436099 -0.36509201
0.233964 0.24464101 -0.36735499
0.236935 0.25496599 -0.36960301
0.23972 0.26544899 -0.37179199
0.24163 0.27668199 -0.37371299
0.243313 0.288111 -0.37556401
0.244767 0.29973501 -0.377345
0.245545 0.31193799 -0.37891701
0.24593499 0.32447299 -0.380371
0.24455 0.33852899 -0.38127801
0.242718 0.35296699 -0.38204899
0.23744901 0.37034699 -0.38176301
0.22371501 0.39497799 -0.378874
0.020988001 -0.992787 -0.16586301
0.039034002 -0.99537098 -0.17274401
0.054249 -0.99553299 -0.178755
0.069141001 -0.995417 -0.18466701
0.084151 -0.99540198 -0.190615
0.09928 -0.995489 -0.19659901
0.114926 -0.99601799 -0.202742
0.13008299 -0.99612898 -0.208735
0.144889 -0.99593902 -0.21462101
0.159632 -0.99569499 -0.220486
0.17283399 -0.99413198 -0.225878
0.18122099 -0.988446 -0.22979
0.18818299 -0.981538 -0.233265
0.10606 -0.89834201 -0.209352
0.10041 -0.88063401 -0.208949
0.090536997 -0.85931098 -0.207248
0.077163003 -0.834988 -0.20447101
0.061409999 -0.80862898 -0.20096099
0.048760001 -0.784926 -0.198406
0.025815999 -0.211909 -0.24869899
0.031860001 -0.204216 -0.25189099
0.036745999 -0.195531 -0.25472599
0.042266 -0.187389 -0.25775701
0.048723001 -0.180048 -0.26107499
0.053791001 -0.171519 -0.26396701
0.057886999 -0.162158 -0.26655999
0.061935998 -0.152757 -0.26913801
0.065985002 -0.143355 -0.27171701
0.070033997 -0.133954 -0.27429399
0.074082002 -0.124552 -0.27687299
0.077514 -0.114621 -0.27926201
0.080418997 -0.10424 -0.281488
0.083324999 -0.09386 -0.28371501
0.086231001 -0.083479002 -0.28594199
0.089137003 -0.073097996 -0.288169
0.092042997 -0.062717997 -0.290396
0.094949 -0.052336998 -0.29262301
0.097344004 -0.041519001 -0.29469201
0.099385999 -0.030399 -0.29665399
0.101463 -0.019308001 -0.29862699
0.103601 -0.0082710003 -0.30061701
0.105072 0.003339 -0.302403
0.105947 0.01546 -0.304005
0.106614 0.027756 -0.30554399
0.107244 0.040086001 -0.307071
0.107874 0.052414998 -0.308599
0.108621 0.064645 -0.31016201
0.112463 0.074224003 -0.312677
0.11615 0.083935 -0.315144
0.120238 0.093304001 -0.317734
0.12653901 0.100777 -0.321004
0.13283999 0.108251 -0.32427499
0.13864601 0.116147 -0.32739401
0.146007 0.122713 -0.33098999
0.152853 0.129719 -0.33442801
0.15952399 0.136875 -0.33781201
0.166122 0.144095 -0.34117499
0.172038 0.151897 -0.344327
0.177117 0.16041701 -0.347222
0.183714 0.16763601 -0.350584
0.188559 0.176356 -0.353407
0.193067 0.18536399 -0.35612601
0.19732399 0.19458701 -0.358769
0.201186 0.20415001 -0.36128899
0.20487601 0.21385901 -0.36375701
0.208497 0.223627 -0.36620399
0.21184801 0.23362701 -0.368568
0.21501499 0.243783 -0.370875
0.218124 0.25398999 -0.37316501
0.221085 0.26432401 -0.37540799
0.22295401 0.275592 -0.377316
0.224461 0.28716999 -0.37911299
0.225969 0.29874799 -0.38091001
0.226825 0.310884 -0.382507
0.227501 0.32317501 -0.38404801
0.226091 0.33725101 -0.384949
0.221634 0.35393801 -0.38491201
0.215325 0.37220901 -0.38430601
0.018478001 -0.99485302 -0.17577
0.034077998 -0.99534398 -0.181899
0.049366001 -0.99556601 -0.187932
0.064471997 -0.99563402 -0.19391
0.079999 -0.99606198 -0.20001701
0.096051998 -0.996939 -0.206285
0.111783 -0.99754202 -0.21245401
0.127083 -0.99777502 -0.218491
0.142298 -0.997935 -0.224502
0.157392 -0.99799299 -0.23047601
0.171902 -0.997549 -0.23627
0.185554 -0.99637198 -0.24180099
0.19269399 -0.98961699 -0.24532899
0.199818 -0.98284799 -0.248853
0.093382999 -0.87883103 -0.217467
0.081385002 -0.85568899 -0.215112
0.063281 -0.82731599 -0.21088099
0.048386 -0.80169201 -0.207635
-0.35975 0.139798 -0.143519
-0.32485601 0.122785 -0.155579
0.029405 -0.167721 -0.26581499
0.035298001 -0.159899 -0.26896
0.041189998 -0.15207499 -0.27210599
0.046525002 -0.143775 -0.275078
0.050962999 -0.134707 -0.277776
0.055380002 -0.12561999 -0.28046799
0.059519999 -0.116296 -0.28307399
0.063345999 -0.106704 -0.285584
0.067162998 -0.097103 -0.288091
0.070266001 -0.086892001 -0.290378
0.073371001 -0.076679997 -0.292667
0.076474003 -0.066469997 -0.29495499
0.079314001 -0.056033 -0.29716101
0.081225999 -0.044801001 -0.29908201
0.082997002 -0.033448 -0.30096
0.084766999 -0.022096001 -0.30283901
0.086538002 -0.010743 -0.304717
0.087040998 0.001695 -0.306205
0.08664 0.014907 -0.30741501
0.086346999 0.028029 -0.308658
0.086689003 0.040605001 -0.31009701
0.087030001 0.053181998 -0.311535
0.087371998 0.065757997 -0.31297401
0.087490998 0.078524999 -0.31434399
0.091453999 0.088 -0.31689599
0.095539004 0.097369999 -0.31948599
0.100138 0.106301 -0.32223299
0.104957 0.115043 -0.32504901
0.109776 0.123786 -0.32786301
0.115062 0.132129 -0.33082199
0.119568 0.141138 -0.33354101
0.124242 0.150005 -0.336312
0.128942 0.158849 -0.33908999
0.133421 0.167882 -0.3418
0.137545 0.17722 -0.344401
0.14242899 0.18590599 -0.34723699
0.147314 0.194593 -0.350072
0.15252499 0.202999 -0.35300699
0.158783 0.210509 -0.35626501
0.164232 0.218712 -0.359274
0.169283 0.227254 -0.36216
0.17482001 0.235383 -0.36519501
0.179189 0.24450999 -0.367872
0.183553 0.25364199 -0.37054801
0.187517 0.263116 -0.37310001
0.19099 0.27300999 -0.37550101
0.194359 0.282996 -0.37786999
0.19646899 0.29405701 -0.379852
0.198579 0.30511901 -0.38183501
0.199825 0.316921 -0.383551
0.198434 0.330982 -0.38445699
0.19508301 0.34672001 -0.38476101
0.18509699 0.368141 -0.38302401
0.013458 -0.99476999 -0.18490499
0.029123001 -0.99531603 -0.191054
0.044482 -0.99559999 -0.197109
0.059588999 -0.99566698 -0.203087
0.075508997 -0.99643201 -0.209314
0.091998003 -0.997684 -0.215717
0.107838 -0.99837899 -0.22192
0.123282 -0.99873602 -0.228001
0.138667 -0.99904102 -0.234064
0.153937 -0.99924898 -0.24009199
0.168795 -0.99910402 -0.245993
0.182851 -0.99827302 -0.251647
0.19633999 -0.99695402 -0.257128
0.206533 -0.992814 -0.26159501
0.209408 -0.98240697 -0.26381201
0.069876999 -0.85004902 -0.22225299
0.045938 -0.81668001 -0.21622699
-0.33745301 0.14222699 -0.163718
-0.30839199 0.13021 -0.173986
-0.28185701 0.120355 -0.183476
-0.25790501 0.112712 -0.192173
-0.237068 0.107737 -0.199912
0.026319999 -0.10495 -0.28221399
0.037310999 -0.101493 -0.28692499
0.04363 -0.094035 -0.29020101
0.048229001 -0.085105002 -0.29294899
0.051162001 -0.074748002 -0.29518399
0.054095 -0.064390004 -0.29741901
0.057027999 -0.054032002 -0.29965499
0.059535999 -0.043311 -0.30175999
0.060458999 -0.031233 -0.303377
0.061381001 -0.019153001 -0.304993
0.062187001 -0.006974 -0.306575
0.061623 0.0063769999 -0.30773601
0.061059002 0.019729 -0.30889601
0.057985999 0.035231002 -0.30928501
0.053924002 0.051578 -0.30937001
0.042656999 0.074096002 -0.30724001
0.055116002 0.076295003 -0.31240299
0.060091 0.084904999 -0.31526601
0.067516997 0.091415003 -0.31888199
0.072958 0.099624 -0.32188901
0.078617997 0.107646 -0.32496199
0.084266998 0.115677 -0.328033
0.089400001 0.12415 -0.330944
0.094531998 0.132625 -0.333855
0.099665001 0.14109799 -0.33676699
0.104548 0.149786 -0.33960101
0.108844 0.158976 -0.34225601
0.11314 0.168165 -0.34491
0.117428 0.17736401 -0.34756199
0.120636 0.187484 -0.34988201
0.123714 0.197717 -0.352162
0.126792 0.20795099 -0.35444099
0.129457 0.218538 -0.356594
0.13236199 0.22892 -0.358821
0.13526499 0.23930199 -0.361047
0.137889 0.249924 -0.36318699
0.139954 0.261024 -0.36515599
0.142534 0.27168399 -0.367282
0.146549 0.28111601 -0.36985001
0.149416 0.291529 -0.37206501
0.15137 0.30272499 -0.37400001
0.152419 0.314697 -0.37565601
0.153796 0.326386 -0.377413
0.153676 0.339358 -0.37871
0.143953 0.36055401 -0.37705401
0.12753899 0.38747901 -0.37334099
0.024168 -0.99528903 -0.20020901
0.039546002 -0.99558699 -0.206269
0.054705001 -0.99570101 -0.212263
0.070914999 -0.99671298 -0.21858101
0.087481998 -0.99803102 -0.225006
0.103829 -0.99916202 -0.23136599
0.119177 -0.99943602 -0.237417
0.134267 -0.99949002 -0.24338999
0.149354 -0.99953997 -0.24936099
0.164225 -0.99940699 -0.25526601
0.17907099 -0.99925101 -0.26116401
0.19379801 -0.99899399 -0.26702499
0.206718 -0.99718899 -0.27232999
0.215306 -0.99167401 -0.27630299
0.20196301 -0.96737897 -0.27353501
-0.32430699 0.152492 -0.181105
-0.297369 0.14229199 -0.19071899
-0.27254099 0.1339 -0.19968601
-0.248355 0.126057 -0.208454
-0.23054899 0.123676 -0.215261
-0.212762 0.121314 -0.222063
-0.196835 0.120544 -0.228292
-0.182944 0.121517 -0.233896
-0.171444 0.124538 -0.238765
-0.16066501 0.128176 -0.243412
-0.150034 0.13194101 -0.248014
-0.140303 0.13647699 -0.25233999
-0.13057201 0.141013 -0.25666401
-0.121884 0.14644299 -0.26066801
-0.114249 0.15277299 -0.26434901
-0.106773 0.15923899 -0.26798099
-0.099993996 0.16630501 -0.27139801
-0.093317002 0.173454 -0.274784
0.012865 0.095392004 -0.30875999
0.033438999 0.090643004 -0.31641799
0.042645998 0.095628001 -0.320582
0.051103 0.101255 -0.32451501
0.058047 0.108178 -0.32798299
0.064310998 0.115682 -0.33124301
0.070164002 0.123539 -0.33437601
0.075332999 0.131981 -0.33729801
0.080499001 0.14042699 -0.34021899
0.085663997 0.148872 -0.34314099
0.090800002 0.157344 -0.346053
0.095439002 0.16624001 -0.348813
0.099550001 0.175588 -0.35141101
0.103398 0.18516301 -0.35392699
0.10662 0.195272 -0.35625201
0.109223 0.20591199 -0.358385
0.11166 0.216694 -0.360468
0.114065 0.227503 -0.36254099
0.116269 0.23848499 -0.36455199
0.118106 0.249781 -0.36645001
0.120068 0.26097 -0.36838701
0.121299 0.27278501 -0.37009901
0.122378 0.28472999 -0.37176499
0.122069 0.297865 -0.37300301
0.121932 0.31085101 -0.374295
0.11877 0.326426 -0.37465599
0.112054 0.34504801 -0.37392601
0.019113 -0.995175 -0.209333
0.034591001 -0.99555999 -0.215425
0.049991 -0.99588001 -0.22149201
0.066344999 -0.997015 -0.227853
0.082854003 -0.99828303 -0.234262
0.099078 -0.99930799 -0.240583
0.11473 -0.999843 -0.246728
0.12915599 -0.999327 -0.25249699
0.143729 -0.99893898 -0.25830999
0.15915599 -0.99928099 -0.264386
0.174558 -0.99960101 -0.270455
0.189404 -0.99944597 -0.27635199
0.203209 -0.99839902 -0.28193
0.216104 -0.99657297 -0.287227
0.214829 -0.98261201 -0.28816801
-0.31888399 0.16937099 -0.196117
-0.29260501 0.15973499 -0.205529
-0.26893401 0.15233301 -0.214139
-0.24861699 0.14780299 -0.221719
-0.227694 0.142755 -0.22948401
-0.211841 0.142048 -0.235691
-0.196344 0.141647 -0.241788
-0.18280999 0.14292499 -0.247283
-0.171433 0.146052 -0.252114
-0.16005699 0.149178 -0.256944
-0.150566 0.15392099 -0.26119599
-0.141706 0.159201 -0.26525301
-0.13299701 0.16461299 -0.26926401
-0.12604401 0.171527 -0.272735
-0.119645 0.17891701 -0.27603599
-0.113678 0.18667699 -0.279203
-0.109099 0.19562399 -0.28194499
-0.0082130004 0.122097 -0.31429201
0.019944999 0.110853 -0.32428101
0.033473998 0.112137 -0.32977399
0.042656999 0.117142 -0.33392999
0.049265001 0.124352 -0.337295
0.055489 0.131891 -0.34054199
0.061000001 0.14004 -0.34356999
0.066142 0.148506 -0.34648401
0.071281001 0.156974 -0.34939799
0.076420002 0.165442 -0.35231099
0.081147 0.174264 -0.35509801
0.085055999 0.18378399 -0.35763299
0.088673003 0.19355699 -0.36007899
0.090967998 0.20446 -0.36211801
0.093267001 0.215361 -0.364158
0.095588997 0.22624201 -0.36620501
0.097050004 0.237859 -0.367989
0.098472998 0.24950901 -0.36976001
0.099018998 0.261911 -0.371261
0.098607004 0.27513301 -0.37246799
0.096767999 0.28957701 -0.37323701
0.091493003 0.30696401 -0.372949
0.011508 -0.99287701 -0.217673
0.029479001 -0.99539798 -0.22453099
0.045421001 -0.99618101 -0.230766
0.061774999 -0.997316 -0.23712701
0.078225002 -0.99853498 -0.243517
0.094256997 -0.99939501 -0.249779
0.109651 -0.99970901 -0.25584501
0.122542 -0.99787903 -0.261141
0.136691 -0.99712598 -0.26682401
0.152542 -0.997832 -0.27303001
0.168311 -0.99846703 -0.279212
0.18405201 -0.99907702 -0.28538501
0.199159 -0.99914598 -0.291363
0.212192 -0.99743801 -0.296702
0.21037 -0.98300803 -0.29747599
-0.32404101 0.195309 -0.207877
-0.295533 0.18376601 -0.21797501
-0.273101 0.177424 -0.22620399
-0.252756 0.17287099 -0.23379201
-0.233787 0.169495 -0.24095599
-0.21684 0.167852 -0.2475
-0.201447 0.167539 -0.253566
-0.18920501 0.16992401 -0.25866199
-0.177871 0.173087 -0.26348001
-0.16763499 0.17719001 -0.267961
-0.15846901 0.182211 -0.27211201
-0.149527 0.18742201 -0.27619401
-0.143436 0.19507501 -0.27939999
-0.13893899 0.20409399 -0.282116
-0.13452899 0.213185 -0.28480601
-0.13254599 0.224355 -0.28674901
-0.131073 0.235964 -0.288535
0.002817 0.134174 -0.33102801
0.021524999 0.13102201 -0.33811301
0.030068999 0.136575 -0.34207299
0.037611 0.142985 -0.34572399
0.044146001 0.150259 -0.349067
0.050267 0.157886 -0.35228199
0.055636998 0.166155 -0.35526699
0.061007999 0.17442501 -0.35825101
0.065148003 0.18374801 -0.36085799
0.068686999 0.193588 -0.36327901
0.070817001 0.204633 -0.36526799
0.073251002 0.215417 -0.36735001
0.074450001 0.227259 -0.36905101
0.073849 0.24064299 -0.37020001
0.074643001 0.252832 -0.37177801
0.070216 0.26949301 -0.37175101
0.023652 -0.99462402 -0.233419
0.03994 -0.99570298 -0.239759
0.057000998 -0.99744397 -0.246337
0.073597997 -0.99878699 -0.25277299
0.089165002 -0.99924999 -0.258892
0.104494 -0.99950802 -0.264938
0.116595 -0.99700201 -0.26999101
0.128252 -0.99411702 -0.27490899
0.133582 -0.985811 -0.277881
0.160818 -0.99626499 -0.28758699
0.176955 -0.99721497 -0.293881
0.19254 -0.997693 -0.300006
0.20410401 -0.99472803 -0.304894
-0.291982 0.21511599 -0.23374499
-0.27015999 0.209297 -0.241787
-0.25346699 0.207872 -0.248252
-0.237298 0.206894 -0.254556
-0.222202 0.206835 -0.26053101
-0.210968 0.21008299 -0.26531801
-0.19982301 0.21340901 -0.27007699
-0.191606 0.21924099 -0.27393699
-0.184056 0.22564401 -0.27759099
-0.178013 0.233339 -0.280783
-0.175082 0.243698 -0.28301799
-0.17415699 0.25577399 -0.28463599
-0.17323101 0.267851 -0.28625399
-0.172305 0.279928 -0.28787199
-0.173115 0.29348901 -0.288957
-0.177959 0.310507 -0.288802
-0.190369 0.33400401 -0.28632
0.0043020002 0.18016399 -0.347496
0.023456 0.176631 -0.354718
0.030839 0.183176 -0.35832199
0.036494002 0.191202 -0.361393
0.041634999 0.199669 -0.36430699
0.045798998 0.20897201 -0.36692199
0.044929001 0.22258601 -0.36798799
0.041207001 0.23864201 -0.368177
0.016384 -0.99261498 -0.241862
0.034669001 -0.99540401 -0.248817
0.051484998 -0.99693698 -0.25532001
0.068406001 -0.99855697 -0.26185501
0.083967999 -0.99901599 -0.26797301
0.099298 -0.99927402 -0.274019
0.110453 -0.99595797 -0.278781
0.116005 -0.98784298 -0.281822
0.118625 -0.97721702 -0.283961
0.116361 -0.96241099 -0.28459901
0.023476001 -0.990035 -0.25605401
0.046045002 -0.99649298 -0.26432601
0.062639996 -0.99783498 -0.27076
0.079159997 -0.99911302 -0.277172
0.094149001 -0.99907899 -0.28311399
0.107113 -0.99731302 -0.288432
0.1166 -0.992567 -0.29268199
0.122171 -0.98447001 -0.29572901
0.117791 -0.96785003 -0.29571599
0.024517 -0.98227203 -0.26838499
0.056874 -0.99711299 -0.27966601
0.073504001 -0.99848598 -0.28611201
0.089449003 -0.99927098 -0.29234701
0.103705 -0.99861002 -0.29806301
0.115961 -0.99623603 -0.30316499
0.12396 -0.99021798 -0.30695701
0.129361 -0.98197401 -0.30995101
0.067704 -0.99773401 -0.29500699
0.084524997 -0.99927002 -0.301512
0.099652 -0.999354 -0.307495
0.113227 -0.99811101 -0.31300199
0.126157 -0.996315 -0.31830999
0.13309 -0.98938203 -0.321776
0.131741 -0.97535801 -0.322694
0.061884999 -0.996966 -0.30389601
0.078648001 -0.99845201 -0.31038299
0.095037997 -0.99961799 -0.316755
0.109428 -0.99907303 -0.322512
0.12379 -0.99850202 -0.32826099
0.135958 -0.99605399 -0.33333501
0.13931701 -0.98606199 -0.335702
0.07277 -0.99763399 -0.31925499
0.089667998 -0.99923599 -0.325782
0.104958 -0.999461 -0.331817
0.119599 -0.99913001 -0.33765101
0.132873 -0.99762702 -0.34306499
0.141587 -0.992221 -0.347078
0.142793 -0.98038501 -0.348782
0.083379 -0.99806499 -0.33452699
0.100302 -0.99968803 -0.34106299
0.115376 -0.99972802 -0.34703001
0.129381 -0.99885201 -0.352669
0.14120901 -0.996113 -0.35763901
0.141151 -0.98319399 -0.358955
0.092811003 -0.99748898 -0.34943801
0.110158 -0.999475 -0.356105
0.125798 -1 -0.36224601
0.13600001 -0.99586701 -0.366716
0.132305 -0.97983402 -0.366914
0.10137 -0.99616498 -0.364081
0.116804 -0.99651301 -0.370159
0.12612399 -0.99162501 -0.374358
0.73958403 0.84140402 -0.475743
0.758681 0.83442199 -0.46571001
0.784235 0.82147503 -0.45414901
0.796938 0.82040101 -0.44563001
0.80594802 0.82273799 -0.437985
0.81271899 0.82714498 -0.43087199
0.81876802 0.83221698 -0.42392901
0.82768601 0.83464098 -0.41630599
0.83762997 0.83611602 -0.40844199
0.84517097 0.839809 -0.40114501
0.84861398 0.84728998 -0.39481899
0.84802598 0.858495 -0.38944799
0.84829801 0.86890501 -0.38387299
0.84268302 0.884754 -0.37969199
0.75412202 0.97723198 -0.395152
0.701846 0.85652798 -0.48116899
0.73127598 0.84000099 -0.46869001
0.75059599 0.83281302 -0.45860401
0.77512199 0.82081699 -0.44728601
0.78695798 0.82054299 -0.43897301
0.79529297 0.82350302 -0.43148899
0.801211 0.82869899 -0.424577
0.80692899 0.834077 -0.417712
0.814556 0.83769202 -0.41039601
0.82280397 0.840734 -0.40293199
0.82880902 0.84584802 -0.396
0.83343399 0.85223597 -0.389393
0.83586299 0.86065298 -0.38330799
0.83462203 0.87246001 -0.37809101
0.829467 0.88788497 -0.37380099
0.75410402 0.968171 -0.38613701
0.75025398 0.98238897 -0.381538
0.66422999 0.86087799 -0.49207699
0.684232 0.85306001 -0.48183101
0.70135897 0.84789902 -0.47226501
0.72296798 0.838597 -0.46163699
0.74563497 0.828318 -0.45075899
0.76656097 0.819646 -0.440294
0.77739799 0.82029599 -0.43221599
0.78410798 0.82475799 -0.42511699
0.79018801 0.82980299 -0.418167
0.79626697 0.83484697 -0.411217
0.80432397 0.83806503 -0.403799
0.81136298 0.842224 -0.39662099
0.817137 0.84754997 -0.389743
0.82127202 0.85439301 -0.38325399
0.82370102 0.86281002 -0.377168
0.82135898 0.87563598 -0.37221199
0.81625199 0.89101601 -0.36791101
0.75898802 0.95458001 -0.37595999
0.74891102 0.97455102 -0.37283599
0.74594098 0.98795497 -0.368029
0.654329 0.85028398 -0.490913
0.67317098 0.84353799 -0.48094001
0.68503898 0.84323502 -0.47262001
0.70025098 0.83984399 -0.463507
0.71465999 0.83719403 -0.45458499
0.73975801 0.82466799 -0.44312999
0.75841701 0.81809199 -0.433202
0.76932597 0.81867498 -0.42510799
0.77396601 0.82504898 -0.41849899
0.77979201 0.83032799 -0.41160899
0.78587198 0.83537298 -0.404659
0.79409403 0.83843797 -0.39719999
0.79992199 0.84371603 -0.39030999
0.80582398 0.84892499 -0.38340199
0.80910897 0.85654998 -0.37711301
0.81147897 0.86502302 -0.37104201
0.80868697 0.87826401 -0.366193
0.801516 0.89555001 -0.36238
0.76336801 0.94145399 -0.36590299
0.75465202 0.96016699 -0.36245599
0.74798 0.97699398 -0.35852599
0.741579 0.993568 -0.35453099
0.66211098 0.83401603 -0.48005
0.67397898 0.83371401 -0.47172901
0.68520099 0.83400798 -0.463561
0.69604897 0.834647 -0.45548201
0.709517 0.83286601 -0.44678199
0.73722899 0.81792498 -0.43470901
0.75118202 0.81569701 -0.42589501
0.76022202 0.81800598 -0.41824299
0.76484603 0.82439601 -0.41163799
0.76948601 0.83077002 -0.405029
0.77547699 0.83589798 -0.39809901
0.78270698 0.83987999 -0.39087799
0.78858399 0.84511203 -0.383975
0.79451799 0.85029 -0.37706
0.797104 0.85856301 -0.37093699
0.79780298 0.86857897 -0.36526
0.79601401 0.88089198 -0.360174
0.78631902 0.90051103 -0.356958
0.76368898 0.93207902 -0.35680699
0.75905699 0.94701999 -0.352393
0.746966 0.96885198 -0.34974599
0.74721998 0.97927803 -0.34417501
0.65088898 0.82464302 -0.47919801
0.66256201 0.82452202 -0.47092301
0.67378497 0.82481402 -0.46275499
0.68301702 0.82694697 -0.45505801
0.692119 0.82919902 -0.44739199
0.70825702 0.82495099 -0.438061
0.73456502 0.81130803 -0.42631999
0.74462003 0.81268102 -0.418428
0.75138003 0.81709599 -0.411318
0.755898 0.82358301 -0.404737
0.760423 0.83006603 -0.398155
0.76508099 0.83642298 -0.391541
0.77134401 0.841299 -0.38454801
0.77727801 0.84647799 -0.37763199
0.78321302 0.85165602 -0.37071601
0.78510702 0.86056697 -0.364757
0.78509301 0.87124199 -0.35925001
0.78334302 0.88352001 -0.35415399
0.77641702 0.900581 -0.35028401
0.76688802 0.92004502 -0.347029
0.75934601 0.93767399 -0.34330499
0.75691599 0.95058101 -0.33837
0.74606401 0.971268 -0.33542901
0.74484199 0.98305798 -0.330208
0.63057297 0.82367301 -0.480499
0.65101802 0.81544602 -0.47014701
0.66236901 0.81562001 -0.46194801
0.67160201 0.817752 -0.45425099
0.68081999 0.81989801 -0.44655901
0.68991399 0.82215798 -0.43889499
0.70924699 0.81495899 -0.42880499
0.72801203 0.80828297 -0.418852
0.73805797 0.80966401 -0.410963
0.74256998 0.81615698 -0.40438399
0.74704999 0.82267898 -0.39781201
0.75157398 0.82916099 -0.39122999
0.75583202 0.83588898 -0.384711
0.76168501 0.84114301 -0.37781501
0.76739901 0.84652603 -0.370951
0.77311301 0.85190803 -0.36408699
0.77530801 0.86054099 -0.35805801
0.776232 0.87035 -0.35232899
0.775087 0.88206798 -0.34708899
0.77036703 0.89709097 -0.34269601
0.76302803 0.91453302 -0.33892301
0.75876898 0.929129 -0.33442101
0.756006 0.942343 -0.32956499
0.75002801 0.95852703 -0.32547
0.74156302 0.977009 -0.321964
0.72821701 1 -0.31961399
0.63646603 0.80914903 -0.470083
0.650904 0.80647302 -0.46115401
0.66018599 0.808559 -0.45344499
0.66941798 0.810691 -0.44574901
0.67861402 0.81285697 -0.438061
0.68966502 0.81330901 -0.42993301
0.70868099 0.80640298 -0.41992
0.72144401 0.805273 -0.411387
0.72947299 0.80851698 -0.40397599
0.73375899 0.81521797 -0.39745
0.73819 0.821787 -0.39089
0.74232101 0.82863098 -0.38440201
0.74715102 0.83482999 -0.377747
0.75271899 0.84034801 -0.37091801
0.75873703 0.84544998 -0.36398199
0.76449102 0.85079402 -0.35710901
0.76720297 0.85895097 -0.35095599
0.76872599 0.86820501 -0.345085
0.76710701 0.88036197 -0.33995801
0.76408601 0.89381498 -0.335163
0.76083398 0.90748 -0.330423
0.75323999 0.92515802 -0.326711
0.75268501 0.93633199 -0.32133099
0.74989498 0.94957101 -0.31648201
0.73717999 0.97197801 -0.31398201
0.73407 0.98551399 -0.30920801
0.63511401 0.80132002 -0.461384
0.64853901 0.79957998 -0.452694
0.65801197 0.801489 -0.44494
0.66723901 0.803626 -0.43724501
0.67794299 0.804398 -0.42919901
0.690319 0.80362701 -0.42075899
0.70256698 0.80297202 -0.41234699
0.71450698 0.80260402 -0.40400901
0.72182298 0.80650502 -0.39676601
0.72595602 0.81334901 -0.39027801
0.72953999 0.82069898 -0.38391799
0.73382097 0.82740498 -0.37739399
0.74036199 0.83202398 -0.37033501
0.74665803 0.836869 -0.36333299
0.75128001 0.84325999 -0.35672799
0.75590098 0.84965301 -0.35012299
0.75917 0.85729402 -0.34383899
0.76167202 0.86564302 -0.337735
0.76192403 0.87607199 -0.332165
0.75976402 0.88872802 -0.32716599
0.75757498 0.90141302 -0.322175
0.74941802 0.91961002 -0.31859499
0.74708998 0.93242198 -0.31363699
0.74532503 0.94471502 -0.30854401
0.73244202 0.967278 -0.30608401
0.72841197 0.98166102 -0.30152699
0.61167401 0.80323499 -0.463424
0.63293397 0.79425502 -0.45287901
0.64530301 0.79348898 -0.44444001
0.65585101 0.794406 -0.43643099
0.66860801 0.79328299 -0.42789999
0.68006599 0.79335898 -0.41967699
0.68930101 0.795488 -0.41197899
0.69827801 0.79785597 -0.40434301
0.70587099 0.801503 -0.397035
0.71368802 0.804941 -0.38967299
0.71859401 0.81107002 -0.383001
0.72206998 0.81852102 -0.37666699
0.72726899 0.82437903 -0.36992601
0.73386103 0.828951 -0.362854
0.74077499 0.83322501 -0.35570601
0.74628299 0.83879799 -0.34889099
0.75134498 0.84478199 -0.34218201
0.754704 0.852341 -0.33587599
0.75720602 0.86069 -0.32977301
0.75740999 0.87116402 -0.32421401
0.75533301 0.883744 -0.31919599
0.75325298 0.89632702 -0.31417799
0.747361 0.91243201 -0.31006199
0.74115402 0.928828 -0.30602199
0.73869997 0.94175601 -0.301092
0.72703898 0.96319002 -0.29834399
0.720321 0.98005801 -0.294424
0.60946101 0.79620099 -0.45492801
0.631078 0.78689098 -0.44429901
0.64823502 0.781703 -0.434726
0.66621202 0.775756 -0.424959
0.67941397 0.77421999 -0.41632199
0.68524498 0.77949601 -0.40943
0.69130498 0.78455698 -0.402484
0.695719 0.79114097 -0.39592901
0.70200098 0.79599798 -0.38893101
0.70803303 0.80108702 -0.38199201
0.71282297 0.80732399 -0.37534699
0.71745199 0.81370902 -0.36874101
0.72358298 0.81870598 -0.36177799
0.73017502 0.82327801 -0.354707
0.73664701 0.82796001 -0.347664
0.74208897 0.83359402 -0.340864
0.74672598 0.83997202 -0.33425501
0.750238 0.84738898 -0.327914
0.752123 0.85630798 -0.32195699
0.75286603 0.86628401 -0.31627101
0.75081903 0.87883598 -0.31124401
0.748743 0.891415 -0.30622599
0.74453402 0.90596402 -0.30171201
0.73230898 0.92791897 -0.29909599
0.72980303 0.94089699 -0.29417899
0.71860403 0.961905 -0.29132101
0.71059299 0.97996598 -0.287707
0.60502398 0.79122102 -0.44695899
0.64960301 0.76069802 -0.43089199
0.67129701 0.75131798 -0.42024499
0.68125999 0.75277501 -0.412375
0.68695801 0.75817102 -0.405514
0.69243997 0.76376998 -0.39870599
0.69527203 0.77181298 -0.39252499
0.69753098 0.780388 -0.38647899
0.69984901 0.78890902 -0.38042
0.70482302 0.79497498 -0.373732
0.70858502 0.80216002 -0.36733001
0.713305 0.80846 -0.36070201
0.71981299 0.81310999 -0.35365099
0.726282 0.81779599 -0.346609
0.73275203 0.82248002 -0.33956599
0.737791 0.82848603 -0.33286199
0.74210602 0.83516097 -0.32633001
0.745772 0.842435 -0.319951
0.74703503 0.85193002 -0.31414199
0.74777597 0.86190599 -0.308456
0.74630398 0.873927 -0.30329299
0.743635 0.88705498 -0.29841501
0.73924798 0.90177 -0.29394299
0.723903 0.92660803 -0.29206699
0.71894401 0.94184899 -0.28773099
0.70747799 0.96310502 -0.284935
0.69994599 0.98072398 -0.28120899
0.67714697 0.72617298 -0.41534999
0.68309402 0.73133999 -0.40843001
0.68858099 0.73693299 -0.40162101
0.69281 0.74368697 -0.395109
0.69545603 0.75190401 -0.38897201
0.69742 0.76075101 -0.38299701
0.69973803 0.76927102 -0.376937
0.70183098 0.77799898 -0.370931
0.70174801 0.78873599 -0.36544001
0.70480299 0.79657501 -0.35920599
0.70942199 0.80297101 -0.35260201
0.71591699 0.80763102 -0.34555301
0.72238702 0.81231499 -0.33851099
0.72858101 0.81725502 -0.331534
0.73316997 0.82367498 -0.32493699
0.73748499 0.83034998 -0.31840399
0.74120301 0.83757699 -0.312013
0.74194503 0.84755301 -0.306326
0.74250299 0.85769898 -0.30068499
0.74005997 0.87061697 -0.29575199
0.73659599 0.88448 -0.291062
0.73010403 0.90113801 -0.28708899
0.71549499 0.92529601 -0.28503799
0.70625103 0.94449699 -0.28171599
0.69871801 0.96211898 -0.277989
0.69563901 0.73199499 -0.38541901
0.697357 0.74106902 -0.379502
0.699368 0.74987203 -0.37351501
0.70044899 0.75953501 -0.36774901
0.70038599 0.77025503 -0.36225301
0.69955498 0.78168303 -0.35693899
0.70115203 0.79087102 -0.351051
0.70540899 0.797598 -0.34453201
0.71197599 0.80219299 -0.33746701
0.71849102 0.80683601 -0.330414
0.72423601 0.81219 -0.323542
0.72855097 0.81886399 -0.31700999
0.73268801 0.82570302 -0.31051999
0.73527002 0.83398002 -0.304398
0.73564601 0.84429401 -0.29879799
0.73500502 0.85554701 -0.293439
0.73187703 0.86909801 -0.28867
0.72703099 0.88423699 -0.284307
0.72071302 0.90073597 -0.280292
0.70639497 0.92462498 -0.27817199
0.694888 0.94591701 -0.27538699
0.68772 0.96320099 -0.27157399
0.69821298 0.73119998 -0.37027901
0.69906801 0.74107099 -0.364566
0.69902301 0.75177401 -0.35906601
0.69819301 0.76320302 -0.35375199
0.69736302 0.77463001 -0.34843901
0.69818401 0.78453201 -0.342733
0.70139802 0.79222602 -0.33646199
0.707964 0.796821 -0.32939601
0.71437198 0.80156201 -0.322368
0.71924299 0.80772299 -0.31570399
0.72324699 0.814686 -0.309246
0.72702903 0.82185298 -0.30283999
0.72828799 0.83135098 -0.29703099
0.729137 0.84122902 -0.29132
0.72679198 0.85405701 -0.286365
0.72357798 0.867688 -0.28161499
0.71725899 0.88418603 -0.27759999
0.71095699 0.90066898 -0.27358299
0.69833201 0.92299402 -0.27106199
0.684398 0.94652802 -0.26885
0.67517102 0.96571398 -0.26552501
0.696868 0.74468601 -0.35055599
0.69602001 0.75613099 -0.345247
0.69517303 0.76757503 -0.33993599
0.695171 0.77823901 -0.33442599
0.69696099 0.78724599 -0.32849199
0.70237702 0.79290301 -0.32170001
0.70795202 0.79841501 -0.31486899
0.71293902 0.80446798 -0.30817699
0.71780902 0.81063199 -0.301514
0.720047 0.819224 -0.29547301
0.72098601 0.829018 -0.28974
0.72042 0.84020299 -0.284363
0.71811402 0.85299498 -0.27939901
0.713898 0.86755103 -0.274887
0.70782202 0.88382602 -0.270816
0.69979203 0.90190601 -0.267207
0.68808001 0.92338699 -0.26447001
0.67042899 0.95035601 -0.26313901
0.66010201 0.97055799 -0.26007301
0.69356698 0.749318 -0.33680701
0.69165099 0.76174903 -0.33175099
0.68912899 0.77474099 -0.326837
0.69144303 0.78326398 -0.320779
0.69618702 0.78954399 -0.314145
0.70133102 0.79545403 -0.30741701
0.70565498 0.80211902 -0.30088201
0.70988297 0.80887502 -0.29437
0.71183699 0.81773102 -0.28839701
0.71270299 0.82759303 -0.282682
0.70990902 0.84083498 -0.27783301
0.706554 0.85459602 -0.27311701
0.701976 0.86948699 -0.26868999
0.69660097 0.88511401 -0.26445201
0.688627 0.90314198 -0.26082999
0.67707098 0.92448002 -0.25805601
0.65710199 0.95358998 -0.25727499
0.68438601 0.77004498 -0.31894001
0.68554401 0.77963501 -0.313155
0.68873602 0.78734899 -0.306889
0.692644 0.79439998 -0.30045301
0.69690198 0.80112797 -0.29393399
0.700463 0.80849898 -0.287581
0.70241702 0.81735498 -0.28160799
0.701401 0.82895601 -0.27633801
0.697864 0.842884 -0.27166399
0.69494498 0.856242 -0.266846
0.69006503 0.87141198 -0.26249099
0.68494701 0.88680202 -0.258192
0.67746198 0.90437901 -0.25445399
0.666062 0.92557198 -0.251643
0.64505303 0.95564198 -0.25110701
0.67639202 0.77901202 -0.30630299
0.67912102 0.78715199 -0.30014601
0.68346798 0.79379803 -0.29360601
0.68813503 0.800147 -0.28698999
0.69041699 0.80870098 -0.28094
0.69094998 0.81886899 -0.27530301
0.68928498 0.83106899 -0.27018601
0.68625599 0.84452897 -0.26539299
0.68333697 0.85788798 -0.26057401
0.67783099 0.87363601 -0.256367
0.67148298 0.89016098 -0.25235999
0.664653 0.907134 -0.248467
0.64968199 0.93162602 -0.246501
0.62363303 0.96635199 -0.24716
0.66817099 0.77752799 -0.299229
0.66899502 0.78742802 -0.293524
0.67215002 0.79517603 -0.28726599
0.67620897 0.80208701 -0.28079501
0.67816299 0.81094301 -0.27482101
0.67938203 0.82047898 -0.26902199
0.67713499 0.83321601 -0.26404399
0.67265803 0.84801298 -0.25959301
0.66793299 0.86303997 -0.255202
0.66281903 0.87842602 -0.25090301
0.65541703 0.89592499 -0.247144
0.64501899 0.916192 -0.244096
0.62695903 0.94353902 -0.242862
0.66436797 0.76130199 -0.29662099
0.65717798 0.789267 -0.28730199
0.65999401 0.79732698 -0.281124
0.663773 0.804497 -0.274719
0.66457897 0.81441498 -0.26901799
0.66413802 0.82548201 -0.263612
0.6613 0.83876598 -0.258773
0.65670502 0.85367298 -0.25435099
0.65100801 0.86959797 -0.25018999
0.64351898 0.887178 -0.246453
0.63453299 0.90614098 -0.24307001
0.62043101 0.92983001 -0.240899
0.60008502 0.959288 -0.240206
0.66241503 0.74336702 -0.29357299
0.64573902 0.79075599 -0.28099099
0.64655298 0.80066699 -0.275287
0.64541799 0.81237602 -0.27004501
0.646626 0.82192099 -0.264249
0.64422101 0.834804 -0.25930801
0.641931 0.84758103 -0.25433999
0.63732898 0.86249501 -0.249919
0.62958002 0.88031501 -0.246243
0.62038201 0.89947402 -0.24291199
0.60485703 0.92447799 -0.24107701
0.58938801 0.949431 -0.23922899
0.582699 0.966272 -0.235303
0.66055202 0.72534698 -0.29050499
0.64023203 0.77610302 -0.27878499
0.63412899 0.792404 -0.27472001
0.626279 0.820979 -0.265558
0.62268698 0.83495802 -0.26089799
0.62266898 0.84563601 -0.255391
0.61728698 0.86127102 -0.251156
0.612257 0.87657899 -0.24683601
0.59896898 0.89951599 -0.244472
0.56323498 0.94319099 -0.24742401
0.559892 0.95694 -0.242705
0.56778502 0.96030903 -0.23532499
0.57633799 0.96306902 -0.227789
0.578089 0.97211301 -0.221864
0.66592997 0.68997699 -0.29123199
0.65872598 0.70729297 -0.28742701
0.63524503 0.76097101 -0.27645701
0.62893099 0.777466 -0.272441
0.62209898 0.794438 -0.26854801
0.60876101 0.82808298 -0.260685
0.60192001 0.845065 -0.25679499
0.592664 0.86427802 -0.25347599
0.57949501 0.887106 -0.25108501
0.56372702 0.91233498 -0.249308
0.54805601 0.937473 -0.247508
0.54757702 0.94857699 -0.242111
0.54936999 0.957582 -0.236176
0.55467302 0.96334499 -0.22940899
0.56491297 0.96454602 -0.22147501
0.57382202 0.96697599 -0.213854
0.56833702 0.982705 -0.20964199
0.682019 0.62338901 -0.30044401
0.664114 0.67191601 -0.28815299
0.65641397 0.68968999 -0.284466
0.648085 0.70804501 -0.28092799
0.63110298 0.745058 -0.273927
0.62363303 0.76262099 -0.27018601
0.61492598 0.78132498 -0.266738
0.600842 0.81566 -0.25905201
0.59225798 0.83425099 -0.255573
0.57985401 0.856372 -0.253001
0.55734301 0.88783002 -0.252821
0.53557098 0.91860598 -0.25246599
0.538351 0.94802302 -0.235276
0.54347301 0.95395201 -0.228553
0.54726899 0.961106 -0.22214399
0.55611497 0.96359497 -0.21453799
0.56704497 0.96415901 -0.206439
0.56543797 0.97630501 -0.201309
0.680511 0.60504103 -0.29729101
0.66218197 0.65395999 -0.285101
0.65388602 0.67228502 -0.28155401
0.64445698 0.69165802 -0.27827701
0.62734199 0.72879303 -0.27130899
0.61675203 0.74923801 -0.26830599
0.60764402 0.76831299 -0.264952
0.60054898 0.78552902 -0.261121
0.59131497 0.804721 -0.25779799
0.580746 0.82514697 -0.25479001
0.53937101 0.87403297 -0.259078
0.537561 0.95033503 -0.22093201
0.54145199 0.95740098 -0.2145
0.54473299 0.96503198 -0.208214
0.55478501 0.966407 -0.200322
0.56253999 0.96990401 -0.192975
0.55875099 0.984065 -0.188362
0.67835498 0.58729303 -0.29429299
0.65966398 0.63654602 -0.282188
0.651281 0.65495199 -0.278662
0.64076 0.67533302 -0.27564299
0.63202298 0.69406599 -0.272201
0.62135297 0.71458501 -0.26921701
0.610856 0.734945 -0.26619199
0.60050899 0.75516403 -0.26313201
0.59026098 0.77529401 -0.26004899
0.57982099 0.7956 -0.25701001
0.53516901 0.95412701 -0.20696799
0.53806603 0.96211201 -0.200772
0.54242402 0.96874797 -0.19422901
0.55188102 0.970671 -0.186479
0.55457902 0.97883999 -0.18032999
0.67544901 0.57023901 -0.29147199
0.66458899 0.60159397 -0.28302199
0.65706003 0.61921197 -0.27929401
0.648283 0.63798201 -0.27586201
0.63706201 0.65900898 -0.273009
0.62619799 0.67970699 -0.270071
0.61536402 0.700378 -0.26712599
0.604155 0.721394 -0.26427001
0.58846098 0.74655402 -0.26247501
0.57802099 0.76686102 -0.25943801
0.56049103 0.79371899 -0.25807801
0.53093201 0.95962399 -0.193441
0.532911 0.96845698 -0.187462
0.53742403 0.974949 -0.18088201
0.54289103 0.98056 -0.174077
0.67242998 0.55328703 -0.28867701
0.66246498 0.58381599 -0.28001499
0.65445501 0.60187799 -0.276402
0.64458501 0.62165701 -0.27322799
0.63377303 0.642308 -0.27027801
0.62193 0.66390997 -0.26757199
0.60934299 0.68620002 -0.26504201
0.59362203 0.71138501 -0.26325399
0.57622099 0.738123 -0.26186401
0.52085298 0.97051901 -0.181297
0.52698201 0.97551799 -0.174335
0.53289801 0.98071402 -0.16742399
0.52598798 0.99775898 -0.16355
0.66922402 0.53650898 -0.285927
0.65173501 0.58465099 -0.273536
0.64202499 0.60428202 -0.27032501
0.63022703 0.62584299 -0.26760799
0.61823201 0.647587 -0.26493901
0.60305399 0.67227 -0.26302099
0.579997 0.70423299 -0.262972
0.66904902 0.495608 -0.29348001
0.66502899 0.52064502 -0.28341001
0.65636402 0.549972 -0.274441
0.64881402 0.567608 -0.27071801
0.63957202 0.58680898 -0.267396
0.626683 0.60937798 -0.264938
0.614048 0.63171297 -0.26242
0.59700203 0.65811998 -0.26094601
0.64661902 0.549896 -0.267728
0.63717598 0.569282 -0.26445401
0.62363601 0.59245199 -0.26214999
0.60802603 0.617535 -0.26033601
0.58836102 0.64636397 -0.259482
0.64355803 0.53298402 -0.26494399
0.63493598 0.55161101 -0.261475
0.622118 0.57411402 -0.259
0.60470301 0.60086501 -0.257613
0.64006799 0.51647002 -0.262261
0.63264102 0.53399098 -0.25850901
0.62054998 0.55582303 -0.25586101
0.60303599 0.58266503 -0.254498
0.64211202 0.47351599 -0.26928699
0.63644499 0.50007498 -0.259608
0.62997001 0.51672 -0.25563201
0.61887503 0.53763098 -0.252749
0.60249001 0.563429 -0.251118
0.52238399 0.361821 -0.39883
0.62621301 0.500449 -0.253012
0.61809802 0.51860797 -0.249422
0.60227299 0.54389 -0.247659
0.62211102 0.48449901 -0.25047401
0.61555803 0.50121599 -0.24651501
0.603441 0.52306998 -0.243873
0.62238801 0.44317999 -0.25792
0.61733401 0.469172 -0.248096
0.61222303 0.48455501 -0.24379499
0.57879502 0.53675997 -0.24068999
0.60775 0.46894801 -0.241345
0.58724302 0.50921601 -0.23518001
0.603248 0.45336699 -0.238901
0.588727 0.48810399 -0.231318
0.48364899 0.32022899 -0.37943399
0.59836102 0.43814099 -0.236549
0.58712298 0.46984699 -0.22819
0.57349801 0.49309501 -0.225905
0.592664 0.42366499 -0.23438901
0.57593799 0.47110099 -0.221817
0.57438499 0.45279601 -0.218675
0.56197602 0.47492099 -0.216104
0.58166897 0.383681 -0.23548301
0.578511 0.40792099 -0.22521
0.57084799 0.43632299 -0.216003
0.563245 0.45400801 -0.212294
0.57220298 0.39400801 -0.223194
0.56127501 0.436088 -0.20925
0.550556 0.45665401 -0.206278
0.55718899 0.42012399 -0.206709
0.557329 0.37893099 -0.214186
0.55265599 0.404571 -0.204272
0.52354002 0.44371399 -0.191126
0.52691197 0.42085901 -0.186818
0.53570098 0.350353 -0.203269
0.532897 0.37426701 -0.192912
0.52473301 0.40313101 -0.183824
0.51484603 0.42292699 -0.180655
0.51427501 0.40371501 -0.17728101
0.49799901 0.42941201 -0.175624
0.51130497 0.38671899 -0.174474
0.50276601 0.405269 -0.170986
0.510975 0.34595999 -0.182064
0.50645798 0.371456 -0.172112
0.50167698 0.38653401 -0.167734
0.48926499 0.40866199 -0.165162
0.496261 0.37179801 -0.165507
0.47481599 0.41293201 -0.159564
0.31404001 0.57212597 -0.19212601
0.49468699 0.33218899 -0.173391
0.49074 0.35715801 -0.163305
0.47776499 0.390468 -0.155356
0.46036801 0.417202 -0.153965
0.34948999 0.53029698 -0.174711
0.32055801 0.56768799 -0.17605101
0.46575001 0.39248899 -0.14918099
0.44464001 0.42265299 -0.148669
0.39951801 0.47499999 -0.153844
0.347673 0.53355902 -0.160611
0.32332 0.566719 -0.16086701
0.29020101 0.60797697 -0.16319899
0.47545201 0.34246299 -0.154395
0.465967 0.37254801 -0.14562
0.45357901 0.39465499 -0.143043
0.435525 0.421996 -0.141807
0.41538 0.45126799 -0.141068
0.38051799 0.49413601 -0.143812
0.34789899 0.53493398 -0.146027
0.32510501 0.56665301 -0.145914
0.296334 0.603894 -0.14721601
0.46826699 0.32936001 -0.152587
0.462008 0.356466 -0.143048
0.45427099 0.374275 -0.13936999
0.44238099 0.39592099 -0.136675
0.42003801 0.43788499 -0.130945
0.40379801 0.46355 -0.129279
0.34729001 0.53707802 -0.13164
0.32547 0.56789798 -0.13129599
0.294956 0.60675001 -0.133011
0.45139799 0.357189 -0.13654
0.38842499 0.47933599 -0.11839
0.319857 0.57466698 -0.118095
0.286459 0.61618203 -0.120493
0.451864 0.315696 -0.143942
0.447137 0.34138599 -0.13404
0.38020399 0.48851401 -0.105806
0.337423 0.54935902 -0.104915
0.26256499 0.63983899 -0.111621
0.388181 0.472065 -0.094896004
0.371084 0.498521 -0.093433999
0.317588 0.56926697 -0.095081002
0.27938801 0.615219 -0.098615997
0.40544501 0.43637499 -0.087298997
0.39371601 0.45787299 -0.084565997
0.37821001 0.48285899 -0.082727
0.32755601 0.550978 -0.083701
0.28993499 0.59639698 -0.087099001
0.24524599 0.64834398 -0.092170998
0.33637899 0.53375 -0.072590999
0.29896501 0.57897401 -0.075939998
0.25649801 0.62887102 -0.080486998
0.34451699 0.51715302 -0.061643999
0.30747601 0.56203401 -0.064905003
0.26249099 0.614254 -0.070047997
0.37215301 0.471881 -0.051591001
0.351542 0.50158298 -0.050960001
0.31598601 0.545093 -0.05387
0.267923 0.60015798 -0.059739999
0.218457 0.656519 -0.065944001
0.38799199 0.43750799 -0.044330001
0.374962 0.46020699 -0.041905999
0.35619301 0.48820701 -0.040839002
0.32466 0.528 -0.042796001
0.27335501 0.58605999 -0.049433999
0.22446001 0.64189303 -0.055503
0.396754 0.40967199 -0.038745999
0.37507999 0.45101899 -0.032857001
0.33061799 0.51341897 -0.032365002
0.27964199 0.57117498 -0.038926002
0.22719499 0.630288 -0.045834001
0.33561599 0.499722 -0.022160999
0.28895599 0.55348998 -0.0277
0.227273 0.62113798 -0.036796
0.159192 0.120562 -0.33044401
0.357061 0.46017 -0.013574
0.33725801 0.489126 -0.012753
0.29802099 0.53603601 -0.016533
0.227349 0.61198801 -0.027758
0.38676599 0.391664 -0.014051
0.367587 0.43070501 -0.0075719999
0.354644 0.45332301 -0.0051259999
0.305226 0.52030098 -0.0058070002
0.22742601 0.60283798 -0.018719999
0.17520601 0.661744 -0.025575001
0.36306399 0.425805 0.000378
0.35137501 0.44726601 0.00312
0.30880201 0.50791901 0.0040600002
0.226206 0.59488702 -0.0099879997
0.178964 0.64919299 -0.015665
0.37587899 0.383564 0.001412
0.34757 0.44170099 0.01124
0.332367 0.466409 0.01315
0.30851299 0.49910799 0.013011
0.22282401 0.58893198 -0.001769
0.180163 0.63900602 -0.0063609998
0.37542701 0.36424199 0.0048139999
0.35356301 0.41642401 0.016168
0.34237599 0.43742201 0.019029001
0.32895499 0.460482 0.021361999
0.30730599 0.491144 0.021746
0.21736901 0.584894 0.005959
0.17765 0.632249 0.0020639999
0.324287 0.45571601 0.029277001
0.30382499 0.48528099 0.029941
0.211915 0.580854 0.013688
0.172198 0.62820703 0.0097939996
0.368873 0.33081701 0.010281
0.36069 0.35969901 0.019365
0.31909201 0.451437 0.037066001
0.29983601 0.47988799 0.038017001
0.206202 0.57705301 0.021354999
0.16667099 0.62423497 0.017504999
0.37003699 0.288679 0.0030449999
0.36443299 0.31517801 0.012739
0.34279799 0.388473 0.035169002
0.29236099 0.47771499 0.045267001
0.19782101 0.57571697 0.02839
0.15817501 0.62300599 0.024513001
0.36432099 0.27421901 0.0052009998
0.34173501 0.36971501 0.038426001
0.28372601 0.47661299 0.052242
0.18919501 0.57460803 0.035367999
0.13540301 0.63496399 0.028139999
0.33950201 0.352038 0.041407
0.32139701 0.40074801 0.053651001
0.312217 0.419891 0.056988001
0.298195 0.44350499 0.059179001
0.21468399 0.53131902 0.044913001
0.180254 0.57378799 0.042270999
0.35698199 0.209534 -0.0060490002
0.353275 0.234282 0.004094
0.32166499 0.380761 0.057224002
0.28919601 0.44274101 0.066067003
0.199224 0.536524 0.050271999
0.170452 0.57376599 0.048969999
0.32626599 0.34610799 0.056313001
0.321064 0.36157501 0.060591999
0.27189001 0.44964999 0.070990004
0.18679 0.53893203 0.056348
0.158116 0.576083 0.055069
-0.041939002 0.77156502 0.013206
0.30649501 0.376618 0.071672
0.29827201 0.394876 0.075236
0.28487399 0.41791499 0.077574
0.201827 0.50529999 0.063418999
0.176275 0.53956699 0.062879004
0.14406601 0.57998401 0.060761999
-0.019669 0.74191201 0.0275
-0.050849002 0.78138 0.025627
0.33480299 0.181466 0.0047380002
0.30582899 0.35749301 0.075024001
0.29827699 0.37513101 0.078745998
0.28903699 0.39432999 0.082069002
0.26128799 0.430628 0.081008002
0.18685099 0.51005602 0.068893
0.16588899 0.540084 0.069439001
0.127499 0.58621103 0.065858997
-0.0020930001 0.71659702 0.040681999
-0.031408001 0.75434101 0.039251
-0.061331999 0.792647 0.037675001
0.30496499 0.33855 0.078330003
0.27551901 0.39773899 0.087888002
0.19731601 0.48064801 0.074879996
0.176569 0.51047599 0.075478002
0.155305 0.54078197 0.075952999
0.097296998 0.60503501 0.067727
0.012265 0.69425303 0.053102002
-0.017317999 0.73224598 0.051607002
-0.044410001 0.76793498 0.050701998
-0.07598 0.80776203 0.048737999
0.303743 0.31994 0.081549004
0.24415 0.41764101 0.089479998
0.184778 0.48315299 0.080931
0.166675 0.510539 0.082154997
0.143098 0.54298198 0.082082003
0.073752999 0.61770701 0.071171999
0.019988 0.67804003 0.063951001
-0.0078600002 0.71442902 0.062867001
-0.032398 0.74776 0.062567003
-0.059289001 0.78326398 0.061709002
-0.099785 0.83133799 0.057631001
0.278227 0.355757 0.095547996
0.26179001 0.381603 0.097166002
0.193749 0.455125 0.086565003
0.174897 0.48320201 0.087612003
0.156781 0.51060098 0.088831998
0.129786 0.546202 0.087949999
0.066340998 0.61547601 0.078437001
0.024034999 0.66522199 0.073930003
-0.0021850001 0.70010698 0.073230997
