# .PCD v0.7 - Point Cloud Data file format
VERSION 0.7
FIELDS x y z
SIZE 4 4 4
TYPE F F F
COUNT 1 1 1
WIDTH 116
HEIGHT 1
VIEWPOINT 0 0 0 1 0 0 0
POINTS 116
DATA ascii
-0.463372	-0.495996	-0.965321	
-0.505267	-0.524056	-0.973959	
-0.54585	-0.555086	-0.977639	
-0.586395	-0.585689	-0.971577	
-0.624526	-0.616277	-0.955472	
-0.643075	-0.627371	-0.943013	
-0.676041	-0.655263	-0.903069	
-0.700617	-0.677243	-0.863838	
-0.725411	-0.699492	-0.822725	
-0.749594	-0.721238	-0.781967	
-0.895166	-0.50618	-0.410172	
-0.853453	-0.481901	-0.392408	
-0.811619	-0.470685	-0.36547	
-0.773208	-0.468637	-0.331885	
-0.722815	-0.464974	-0.32445	
-0.703917	-0.46349	-0.324737	
-0.657127	-0.459846	-0.33095	
-0.601765	-0.455553	-0.340391	
-0.548788	-0.451448	-0.349957	
-0.496734	-0.447415	-0.359645	
-0.438227	-0.442884	-0.37078	
0.968988	-0.643973	0.332791	
0.91892	-0.651225	0.34376	
0.869077	-0.65264	0.354488	
0.81797	-0.65492	0.35874	
0.766304	-0.650349	0.359755	
0.71543	-0.653715	0.357	
0.664574	-0.652019	0.351081	
0.613622	-0.650829	0.342459	
0.563303	-0.652575	0.33035	
0.515529	-0.643923	0.313637	
0.465777	-0.643934	0.299496	
0.421335	-0.640835	0.273657	
0.383314	-0.635898	0.243435	
0.347701	-0.629143	0.207057	
0.3124	-0.621584	0.17089	
0.278644	-0.616112	0.132522	
0.251385	-0.606203	0.0896822	
0.221325	-0.603163	0.0483806	
0.198111	-0.589432	0.00503892	
0.167362	-0.579111	-0.0347317	
0.127694	-0.575017	-0.067451	
0.0835978	-0.572177	-0.096367	
0.0366003	-0.569607	-0.12544	
-0.00768979	-0.567418	-0.151947	
-0.783339	-0.852666	-0.391994	
-0.737788	-0.87678	-0.397394	
-0.687198	-0.878484	-0.387423	
-0.650633	-0.866893	-0.367348	
-0.620491	-0.853405	-0.349194	
-0.5824	-0.818968	-0.352744	
-0.550761	-0.781053	-0.367693	
-0.187649	-0.836976	0.361449	
-0.144246	-0.818783	0.33976	
-0.113684	-0.814823	0.298692	
-0.109013	-0.82009	0.248164	
-0.119995	-0.823486	0.198205	
-0.141633	-0.824794	0.151788	
-0.168605	-0.827741	0.108345	
-0.181499	-0.823142	0.05892	
-0.18159	-0.814155	0.019031	
-0.198507	-0.812739	-0.0297631	
-0.198905	-0.787229	-0.0743352	
-0.192019	-0.749275	-0.108686	
-0.182696	-0.706526	-0.136733	
-0.172712	-0.661592	-0.164971	
-0.162299	-0.615158	-0.193526	
-0.152055	-0.569757	-0.221029	
-0.642781	-0.554364	0.388974	
-0.59445	-0.542775	0.377435	
-0.543807	-0.537109	0.371485	
-0.497031	-0.523369	0.355681	
-0.459066	-0.507444	0.324718	
-0.434241	-0.490142	0.283605	
-0.419792	-0.471715	0.237787	
-0.406807	-0.453573	0.191869	
-0.382867	-0.43904	0.148654	
-0.363982	-0.430249	0.105468	
-0.355143	-0.427945	0.080524	
-0.341536	-0.424491	0.0311623	
-0.33228	-0.417889	-0.0191943	
-0.31001	-0.425498	-0.0645421	
-0.281055	-0.447193	-0.100905	
-0.250133	-0.475868	-0.130843	
-0.217826	-0.506502	-0.16103	
-0.184538	-0.538401	-0.191584	
-0.152055	-0.569757	-0.221029	
-0.907344	-0.84003	-0.74253	
-0.868783	-0.81113	-0.759402	
-0.828907	-0.780806	-0.773294	
-0.790485	-0.751825	-0.780578	
-0.749594	-0.721238	-0.781967	
-0.152055	-0.569757	-0.221029	
-0.192077	-0.566868	-0.25549	
-0.233827	-0.570681	-0.284733	
-0.275651	-0.57591	-0.314771	
-0.315996	-0.581122	-0.347801	
-0.356338	-0.587119	-0.380025	
-0.396304	-0.59339	-0.411776	
-0.749594	-0.721238	-0.781967	
-0.715591	-0.7004	-0.747858	
-0.684433	-0.682287	-0.711708	
-0.658207	-0.669857	-0.66932	
-0.638936	-0.673417	-0.621926	
-0.626718	-0.687767	-0.573103	
-0.618854	-0.698842	-0.537599	
-0.612129	-0.715786	-0.488719	
-0.600811	-0.73947	-0.4449	
-0.582203	-0.764408	-0.40428	
-0.550761	-0.781053	-0.367693	
-0.550761	-0.781053	-0.367693	
-0.396304	-0.59339	-0.411776	
-0.396304	-0.59339	-0.411776	
-0.438518	-0.603228	-0.438892	
-0.4676	-0.608352	-0.462682	
-0.500911	-0.613805	-0.492681
