ply
format ascii 1.0
comment PCL generated
element vertex 1373
property float x
property float y
property float z
element camera 0
property float view_px
property float view_py
property float view_pz
property float x_axisx
property float x_axisy
property float x_axisz
property float y_axisx
property float y_axisy
property float y_axisz
property float z_axisx
property float z_axisy
property float z_axisz
property float focal
property float scalex
property float scaley
property float centerx
property float centery
property int viewportx
property int viewporty
property float k1
property float k2
end_header
-0.10502966 -0.0292331 -0.266794
-0.0914803 -0.0288065 -0.278662
-0.050441224 -0.026583558 -0.27424321
-0.030320363 -0.029078491 -0.26817191
-0.011587325 -0.032273658 -0.26485986
0.014648961 -0.031202542 -0.26564899
0.031011501 -0.029600874 -0.26825541
0.04970279 -0.028207101 -0.27396566
0.091623902 -0.0278685 -0.27894601
0.10395975 -0.031097598 -0.268457
-0.107884 -0.0066677202 -0.261098
-0.095565498 -0.01065167 -0.27361751
-0.047543831 -0.0084680906 -0.27357531
-0.033597756 -0.012309841 -0.27078214
-0.0182545 -0.0166237 -0.265854
0.0180944 -0.015705699 -0.266565
0.032655213 -0.012455007 -0.27186629
0.046835527 -0.0088438084 -0.27381182
0.091328897 -0.0107822 -0.27704099
0.104057 -0.0072960299 -0.26592648
-0.090654701 0.0059512998 -0.27276668
-0.068392545 0.0098423958 -0.2781665
-0.049486604 0.009140891 -0.273413
-0.033518225 0.0087034255 -0.26730624
-0.0081552146 0.006598115 -0.2669155
0.0119286 0.0061427802 -0.26877001
0.0325545 0.0098131523 -0.26727626
0.048911534 0.010693941 -0.27299818
0.072998099 0.018574901 -0.27650201
0.090736769 0.0068087406 -0.27287266
-0.0847646 0.028564865 -0.26829767
-0.067259006 0.030428132 -0.27185035
-0.051022828 0.03005386 -0.27035561
-0.037814099 0.020245999 -0.270585
0.0368408 0.025957299 -0.2701745
0.052230705 0.029580843 -0.27013439
0.067140304 0.0312369 -0.27181831
0.08622475 0.0237555 -0.2698645
-0.0689115 0.052261699 -0.26129749
-0.051367354 0.049387701 -0.26419488
-0.038998999 0.053772099 -0.276528
0.038356498 0.048681602 -0.27416402
0.052114241 0.045696359 -0.26408702
0.068602756 0.0529988 -0.26108903
0.081613399 0.040626802 -0.26504901
-0.034070902 0.063355498 -0.27841499
0.032359201 0.063396402 -0.277821
-0.0052962434 0.08785665 -0.267313
0.0091122501 0.091761097 -0.26028401
-0.12645668 -0.38639516 -0.25312579
-0.11062422 -0.39325729 -0.2526786
-0.090043217 -0.39518654 -0.2508764
-0.071204334 -0.39286718 -0.25160784
-0.058900833 -0.38242468 -0.2566807
0.058499001 -0.38445252 -0.25275525
0.071364731 -0.39269617 -0.2506142
0.089968853 -0.39498767 -0.25118288
0.11125471 -0.39259788 -0.25230789
0.12627941 -0.38643062 -0.25271142
-0.12914832 -0.37072322 -0.25337198
-0.1195795 -0.36268499 -0.25107598
-0.058674071 -0.37214443 -0.25027916
0.057340052 -0.37129211 -0.25082824
0.11865866 -0.36397001 -0.251403
0.12801683 -0.37102509 -0.25203946
-0.12885401 -0.358771 -0.258742
-0.10958701 -0.35202351 -0.25142136
-0.091938868 -0.34562618 -0.24669099
-0.069075875 -0.34672716 -0.24819608
0.059454702 -0.35324001 -0.254426
0.069276646 -0.3451336 -0.24770769
0.091043971 -0.34540382 -0.24657579
0.10905947 -0.35127577 -0.2524468
0.124325 -0.3572315 -0.25880349
-0.10307633 -0.334353 -0.256807
-0.090401061 -0.3327305 -0.25196493
-0.074167348 -0.33130684 -0.2522541
0.073225893 -0.33047593 -0.25306466
0.089924127 -0.33272472 -0.25191459
0.1027765 -0.332165 -0.257447
-0.100061 -0.31876701 -0.25893801
-0.089883819 -0.31181008 -0.25546548
-0.074855752 -0.30894899 -0.25660148
0.074617423 -0.30892774 -0.25648975
0.090525553 -0.31250563 -0.25571391
-0.089616306 -0.28835186 -0.25617385
-0.077090196 -0.28966999 -0.25714999
0.0767949 -0.289731 -0.256953
0.089323975 -0.28837958 -0.2561107
-0.102069 -0.26052701 -0.258522
-0.089933135 -0.27182522 -0.25552458
-0.076208204 -0.26943499 -0.25729001
0.075821206 -0.26953149 -0.25709099
0.089571409 -0.27188802 -0.25546765
0.101623 -0.260591 -0.25858799
-0.10504487 -0.24532439 -0.25444087
-0.089807041 -0.24862844 -0.25029248
-0.072810426 -0.24450825 -0.25429451
0.072340973 -0.24466975 -0.25405952
0.089382537 -0.24877948 -0.25022417
0.10512689 -0.24483234 -0.25465345
-0.10980466 -0.23060115 -0.24858139
-0.091110051 -0.23794699 -0.2436655
-0.067178756 -0.22967187 -0.25070512
0.066697568 -0.22981507 -0.25041118
0.092535719 -0.2371614 -0.2429148
0.110057 -0.22978555 -0.24871546
-0.10914175 -0.20792075 -0.24935801
-0.098106503 -0.201139 -0.25834799
-0.062773779 -0.2092907 -0.25251719
-0.059053365 -0.20842767 -0.24296065
0.059032321 -0.2073926 -0.24434118
0.063009255 -0.21078056 -0.254228
0.097473003 -0.201141 -0.25836
0.10860663 -0.20790225 -0.24945673
-0.10348833 -0.193115 -0.24509101
-0.096935786 -0.18831901 -0.25066036
-0.065136924 -0.18617775 -0.25181124
-0.058522101 -0.192341 -0.24324401
0.0579946 -0.192431 -0.24291299
0.064506806 -0.18620999 -0.25156251
0.096326098 -0.1882965 -0.25068325
0.102947 -0.19310068 -0.24515367
-0.089548506 -0.17150234 -0.2518065
-0.066383965 -0.16953965 -0.25023398
0.059435099 -0.168635 -0.24317899
0.072541505 -0.16907001 -0.25450465
0.090633355 -0.17226961 -0.25081119
-0.087242067 -0.15381466 -0.24875768
-0.067786373 -0.14874275 -0.25196275
-0.057549253 -0.14801151 -0.24273649
0.05688015 -0.148038 -0.2423645
0.069312021 -0.150158 -0.25202021
0.089933649 -0.1536445 -0.246297
-0.08925996 -0.13242835 -0.24838667
-0.067796797 -0.1250395 -0.25703299
-0.054524101 -0.12731749 -0.2451925
0.053921651 -0.127345 -0.244789
0.071259737 -0.13136999 -0.25524902
0.089588016 -0.12984221 -0.24798679
-0.100683 -0.110138 -0.243442
-0.093175247 -0.110221 -0.252601
-0.051273998 -0.10718101 -0.24937049
0.050852872 -0.10722324 -0.2489875
0.089341439 -0.110284 -0.25496498
0.100292 -0.110081 -0.243357
-0.1041505 -0.088162474 -0.24975425
-0.098418199 -0.096042097 -0.254053
-0.0438453 -0.085081302 -0.25033501
0.0436044 -0.085059598 -0.25007501
0.098094299 -0.095962197 -0.25389799
0.10391525 -0.088036627 -0.24969225
-0.109294 -0.069166675 -0.24986374
-0.033324532 -0.068745494 -0.24896665
-0.0091602104 -0.061139099 -0.240275
0.00891589 -0.0611098 -0.24025001
0.033101898 -0.068596199 -0.24892467
0.10918324 -0.068843722 -0.25001776
-0.114662 -0.048493605 -0.24978767
-0.027412601 -0.055855732 -0.25443199
-0.00876047 -0.050723761 -0.25283769
0.014249413 -0.050237034 -0.25360218
0.027176669 -0.0554487 -0.25467733
0.11465567 -0.047896266 -0.250139
-0.1164645 -0.030745624 -0.25006199
0.11739334 -0.033443663 -0.24859066
-0.11722401 -0.0090561276 -0.24615525
-0.026897199 -0.00032229201 -0.252772
-0.0080207586 -0.0071739294 -0.24954849
0.01409751 -0.0056112851 -0.2515125
0.11665501 -0.010577585 -0.24817979
-0.11212925 0.0074714804 -0.24986474
-0.029278677 0.012572544 -0.24837482
-0.010065235 0.0077445623 -0.24747351
0.012484852 0.0071428427 -0.24478748
0.027991001 0.012616901 -0.24957938
0.1121805 0.0082608098 -0.2499065
-0.10907251 0.026669301 -0.246133
-0.099985696 0.0250013 -0.259826
-0.042077404 0.034013804 -0.24910599
-0.038592499 0.0280798 -0.248496
0.037633564 0.031871837 -0.249964
0.042467337 0.033082567 -0.24741767
0.099901997 0.025816301 -0.259792
0.1089595 0.027415 -0.24607798
-0.10272933 0.044760805 -0.24542634
-0.089363694 0.050752904 -0.25433901
-0.046955783 0.050446223 -0.24998459
0.048980754 0.053362284 -0.25321117
0.089165725 0.051481735 -0.25413999
0.10253334 0.045460898 -0.24526267
-0.084585004 0.068978302 -0.244827
-0.071482636 0.070498534 -0.24779266
-0.049792569 0.067812443 -0.25185865
-0.035173599 0.076517902 -0.25621101
0.0363851 0.070845202 -0.2558865
0.051589638 0.068424918 -0.25089198
0.0692508 0.067679852 -0.25122601
0.084353499 0.069618799 -0.24450099
-0.0555925 0.080606498 -0.240205
-0.0248861 0.0863031 -0.255557
-0.00035594401 0.097006246 -0.25339651
0.0239776 0.085783496 -0.25588101
-0.0150258 0.100759 -0.24144401
0.014519 0.100142 -0.241978
-0.123043 -0.38352162 -0.23167601
-0.10799871 -0.38884374 -0.23288378
-0.088803165 -0.3907325 -0.23150513
-0.072676018 -0.38548189 -0.23039475
0.071584657 -0.38468626 -0.2303818
0.091696873 -0.39038563 -0.23125151
0.10805564 -0.38874051 -0.23158395
0.12145675 -0.38414052 -0.23386499
-0.122094 -0.37122703 -0.232375
-0.10755781 -0.36965314 -0.23178713
-0.083353244 -0.36576247 -0.22680958
-0.069584541 -0.37224194 -0.22706942
0.059048966 -0.37172899 -0.23834968
0.069915451 -0.37159777 -0.22536261
0.087720022 -0.36273077 -0.22650725
0.10774241 -0.37042254 -0.23081276
0.121722 -0.37358299 -0.232388
-0.1126285 -0.35845101 -0.23735499
-0.089238495 -0.35409328 -0.23476562
-0.072692797 -0.35474375 -0.23431474
0.072261065 -0.35362479 -0.23459432
0.08792264 -0.35389087 -0.23440187
0.107651 -0.35877201 -0.23765568
-0.10486233 -0.226355 -0.23541933
-0.08789774 -0.229077 -0.23392583
-0.0704799 -0.2237175 -0.23668349
0.073347695 -0.226438 -0.236775
0.089120857 -0.22886679 -0.2329562
0.10451867 -0.22656865 -0.235323
-0.11118113 -0.21450999 -0.22870685
-0.085791796 -0.21912849 -0.2212275
-0.065287858 -0.2124106 -0.22915058
-0.057185799 -0.2039735 -0.23687899
0.057727139 -0.20491333 -0.23384066
0.066268869 -0.21403576 -0.22890675
0.085567802 -0.2194145 -0.22090101
0.110869 -0.21466263 -0.22864924
-0.10969442 -0.18793114 -0.23187287
-0.054277051 -0.18844767 -0.23280184
0.053829033 -0.18855132 -0.2324245
0.10925271 -0.18791328 -0.23196687
-0.10525034 -0.16886866 -0.226873
-0.098609447 -0.1683985 -0.2362005
-0.052108198 -0.16847399 -0.2324055
0.051588949 -0.1685635 -0.231985
0.098068297 -0.1683735 -0.2362345
0.10480001 -0.16885035 -0.22695066
-0.1022425 -0.15130375 -0.225077
-0.097003147 -0.15422401 -0.235422
-0.04844135 -0.14678125 -0.23003224
0.04961757 -0.14895 -0.23272967
0.097517826 -0.15426333 -0.23322301
0.10249633 -0.15023667 -0.22387235
-0.10326175 -0.12877074 -0.22584175
-0.09899687 -0.13448167 -0.234429
-0.044232398 -0.13069166 -0.22696866
0.043762166 -0.13081567 -0.22640367
0.098499931 -0.13444066 -0.23439433
0.10286575 -0.12872975 -0.22582676
-0.1048075 -0.1101135 -0.2335145
-0.0449242 -0.114215 -0.235471
-0.038682401 -0.1077065 -0.22359851
0.038456552 -0.107887 -0.22309801
0.044543199 -0.114311 -0.23502
0.104474 -0.110062 -0.23346999
-0.1100155 -0.092988349 -0.231858
-0.0364521 -0.088552102 -0.23190901
0.036279902 -0.088723399 -0.23151501
0.109797 -0.092941098 -0.23183751
-0.116384 -0.071156465 -0.23081867
-0.024643999 -0.072025508 -0.22884475
-0.0085839555 -0.068185598 -0.22771981
0.01407666 -0.068765827 -0.22672968
0.024458252 -0.072182797 -0.2286015
0.11628067 -0.07101234 -0.23088133
-0.12192199 -0.049977005 -0.22659968
0.121905 -0.049730733 -0.22668634
-0.1225985 -0.030011225 -0.23074725
0.12262875 -0.029485848 -0.23094499
-0.121471 -0.0089833876 -0.23090476
0.121532 -0.0083048996 -0.23104849
-0.12075534 0.0051699965 -0.22763701
-0.11806466 0.014339536 -0.23290266
-0.00142266 0.0084122997 -0.23829301
0.11801133 0.015024439 -0.23290999
0.12075367 0.0058355895 -0.22769134
-0.11590199 0.031279601 -0.2269886
0.1157216 0.031887639 -0.22690979
-0.109226 0.0506409 -0.228577
-0.045565099 0.051284902 -0.237268
0.043484248 0.054288201 -0.2382115
0.1089985 0.051210798 -0.22837299
-0.10384367 0.067471169 -0.22482534
-0.095186144 0.072656602 -0.232611
-0.044781625 0.068865396 -0.23691851
0.0441502 0.069568433 -0.237113
0.075007901 0.078071997 -0.239884
0.094954252 0.073212847 -0.23225549
0.10437749 0.064235851 -0.226815
-0.086678803 0.080449797 -0.231846
-0.069329299 0.088538133 -0.22866301
-0.047041502 0.088614807 -0.23146257
-0.035017949 0.093716003 -0.23143226
0.034693927 0.09250164 -0.2325615
0.047920965 0.08781831 -0.23232313
0.06913133 0.089056529 -0.22818066
0.086448498 0.0809936 -0.231435
-0.0276282 0.10347424 -0.22809374
-0.0079590185 0.1101765 -0.229039
0.015534 0.111286 -0.226331
0.027445175 0.1027305 -0.22877949
-0.091391228 -0.38667744 -0.21638241
0.088421218 -0.3848986 -0.21515629
-0.10027 -0.37734699 -0.215455
-0.093300402 -0.3722418 -0.2169852
0.093084328 -0.37244013 -0.21640085
-0.10785234 -0.2062785 -0.21013933
-0.091994122 -0.212283 -0.210942
-0.073811799 -0.2058365 -0.2098635
0.073639497 -0.206054 -0.20946699
0.091845803 -0.21259601 -0.21061251
0.108409 -0.207339 -0.2119654
-0.11645117 -0.19047917 -0.21124834
-0.065367498 -0.199653 -0.21213201
-0.056676168 -0.19012867 -0.21551166
0.056389634 -0.19023268 -0.215119
0.0651455 -0.199788 -0.211744
0.11620668 -0.19050018 -0.211303
-0.11704733 -0.17011432 -0.20936167
-0.049988899 -0.1705835 -0.21246049
0.04969535 -0.1707125 -0.2119725
0.11676466 -0.170081 -0.20949768
-0.11489066 -0.15384866 -0.20777868
-0.04504044 -0.14948758 -0.2100058
0.04442675 -0.14817268 -0.21108234
0.114602 -0.15381266 -0.20790301
-0.11173601 -0.13324 -0.20987549
-0.040455099 -0.1287435 -0.20749301
0.040301003 -0.12898201 -0.2067735
0.11145825 -0.13320099 -0.20994875
-0.1148525 -0.107952 -0.2081905
-0.036775567 -0.11233234 -0.20790367
0.036722969 -0.112586 -0.20731901
0.114677 -0.10789549 -0.20824924
-0.117601 -0.088333003 -0.210457
-0.0288397 -0.086297452 -0.209098
0.028864 -0.086554952 -0.208777
0.1174885 -0.088262349 -0.21049801
-0.1214605 -0.0713448 -0.20829201
-0.0215472 -0.076966599 -0.205045
-0.0071014646 -0.073745102 -0.21086244
0.010557872 -0.074064516 -0.21038602
0.021593399 -0.077299699 -0.204495
0.1214065 -0.07125105 -0.2083205
-0.12350699 -0.047988676 -0.21010025
0.12349451 -0.047837626 -0.21010624
-0.1237972 -0.030236119 -0.21199481
0.12380581 -0.0299135 -0.2120758
-0.12340543 -0.0096054282 -0.20998459
0.12344082 -0.010709046 -0.21029635
-0.12270681 0.0082988357 -0.2085834
0.122711 0.0073852665 -0.20863301
-0.121482 0.022663102 -0.207497
-0.11897033 0.032208335 -0.21477699
0.11876933 0.032725498 -0.21469267
0.121307 0.0231518 -0.20747501
-0.117384 0.043912947 -0.2086405
0.117154 0.044355303 -0.208479
-0.10916451 0.066704147 -0.2092385
0.106646 0.069891095 -0.212575
-0.101049 0.084867902 -0.204787
-0.091816872 0.092920572 -0.20867126
0.090577431 0.092862129 -0.210968
0.100819 0.085214399 -0.204337
-0.072950646 0.1030545 -0.20521349
-0.04876605 0.107466 -0.211173
-0.0312737 0.113785 -0.21489701
-0.0085267602 0.11878251 -0.21563751
0.031044301 0.114564 -0.21379501
0.04854355 0.1081035 -0.21027601
0.072744906 0.1034065 -0.204621
-0.000114694 0.124698 -0.205782
0.0167055 0.120326 -0.211192
-0.092425801 -0.20156801 -0.19507766
0.092379399 -0.20189132 -0.19472168
0.104082 -0.20238 -0.19998699
-0.108569 -0.19020499 -0.19194265
-0.094595954 -0.1919695 -0.18255401
-0.070025653 -0.1899555 -0.19463101
0.069931597 -0.1901215 -0.1942285
0.094627798 -0.19229999 -0.1821845
0.10849933 -0.19033867 -0.19183566
-0.11445075 -0.1732295 -0.18846026
-0.065328203 -0.175983 -0.186005
-0.056988001 -0.174099 -0.19660801
0.056908201 -0.174192 -0.196207
0.065341301 -0.17609 -0.18562301
0.1143695 -0.17320575 -0.18852299
-0.1205245 -0.1533255 -0.191458
-0.118221 -0.154135 -0.182493
-0.050383076 -0.15007649 -0.18936524
0.050571926 -0.1502305 -0.18890725
0.118156 -0.15404101 -0.18262599
0.120384 -0.15325651 -0.1916135
-0.121613 -0.13447133 -0.18914665
-0.042842899 -0.13059668 -0.19384734
0.043041799 -0.13083068 -0.19328368
0.12149867 -0.13439299 -0.18930167
-0.1228388 -0.1080186 -0.18882601
-0.119019 -0.118184 -0.197981
-0.040536501 -0.114084 -0.182924
-0.035842732 -0.10518932 -0.19267267
0.036049232 -0.10545 -0.19227433
0.0408777 -0.114305 -0.182606
0.118874 -0.118125 -0.19809701
0.122778 -0.10792641 -0.1889558
-0.12361234 -0.087915666 -0.18994398
-0.028050151 -0.086463898 -0.1935185
0.028231449 -0.086721152 -0.1933205
0.12358699 -0.087806761 -0.19003767
-0.1255625 -0.072151348 -0.18764299
-0.0222826 -0.0790402 -0.188785
-0.011884198 -0.076715998 -0.19107217
0.012993448 -0.077551052 -0.18981376
0.022396 -0.0794947 -0.187759
0.12556401 -0.072018348 -0.187711
-0.1254645 -0.054994099 -0.193597
0.12546301 -0.05485265 -0.19361749
-0.12683021 -0.030753519 -0.19089381
0.12682581 -0.03056832 -0.19086859
-0.12648599 -0.011331659 -0.19237716
0.12644385 -0.011068444 -0.19236283
-0.12578373 0.0097397976 -0.19079
0.1256451 0.010114711 -0.19081999
-0.1238486 0.027887922 -0.190844
0.1236418 0.028242921 -0.190787
-0.12203566 0.043490168 -0.18605466
-0.11782066 0.055040434 -0.19078366
0.1168875 0.054696199 -0.19588301
0.12179733 0.043769363 -0.18590499
-0.110931 0.071113497 -0.191826
0.1107 0.071375199 -0.19147301
-0.104941 0.083357498 -0.18818501
-0.097108901 0.094827101 -0.184791
0.095748603 0.094808146 -0.19200251
0.104712 0.083582297 -0.18774199
-0.088845998 0.104032 -0.183011
-0.073500603 0.111931 -0.1846915
-0.045008499 0.117023 -0.19826201
0.0447791 0.11755 -0.197275
0.073271252 0.1121305 -0.184049
0.088616602 0.104216 -0.182411
-0.033004701 0.122798 -0.195737
-0.0091395471 0.12928 -0.19155899
0.017935099 0.12779 -0.193849
0.032775301 0.123197 -0.194869
-0.083925001 -0.188008 -0.179739
0.083971597 -0.18833099 -0.179291
-0.103332 -0.17646 -0.174087
-0.090689696 -0.17644365 -0.16844201
-0.071587302 -0.167098 -0.17140633
0.0717972 -0.167243 -0.17103501
0.090883464 -0.176704 -0.16808867
0.103441 -0.176581 -0.17396501
-0.108702 -0.15737401 -0.16834033
-0.064329498 -0.14565 -0.163909
-0.0553311 -0.144127 -0.175148
0.055707399 -0.14423101 -0.174815
0.0647365 -0.145707 -0.163633
0.108897 -0.15731366 -0.16842766
-0.117083 -0.1348995 -0.16855851
-0.050857998 -0.1288995 -0.17306051
0.051281147 -0.129031 -0.17277199
0.117236 -0.13475201 -0.16877849
-0.123967 -0.11006299 -0.17498934
-0.118067 -0.119041 -0.160045
-0.0443189 -0.1077425 -0.16740251
-0.037868101 -0.100779 -0.175074
0.038200699 -0.100994 -0.17490301
0.044679951 -0.1078995 -0.16724449
0.118339 -0.118878 -0.160312
0.124005 -0.10993633 -0.175155
-0.12614733 -0.087956131 -0.16986601
-0.032139901 -0.084715657 -0.17077999
0.032355629 -0.084692821 -0.16927625
0.12622733 -0.087810241 -0.16999866
-0.1278865 -0.067658544 -0.168612
-0.0252576 -0.076839298 -0.16742074
-0.005784444 -0.078127451 -0.170781
0.013946123 -0.078308828 -0.17313033
0.022623099 -0.077677451 -0.1698845
0.1279145 -0.068376154 -0.16959549
-0.12883933 -0.051749799 -0.17032968
0.12878166 -0.0531088 -0.17067634
-0.13045201 -0.03239388 -0.16869579
0.1304144 -0.0327258 -0.16848961
-0.13117732 -0.010746404 -0.169897
0.13110749 -0.010523669 -0.16985399
-0.13008083 0.010951192 -0.16884483
0.12991233 0.011173993 -0.16880417
-0.126534 0.032430734 -0.17310132
0.12630367 0.032648668 -0.17302199
-0.1237565 0.0474292 -0.16576749
0.118972 0.056583401 -0.17990001
0.1235115 0.047572598 -0.16564851
-0.1130785 0.072068453 -0.1724385
0.112847 0.072207302 -0.1721195
-0.101807 0.090787098 -0.165011
0.101578 0.090874299 -0.164575
-0.092145197 0.103166 -0.16188601
-0.079194002 0.112914 -0.162662
0.078964598 0.112989 -0.16209599
0.091915801 0.103236 -0.161377
-0.052965999 0.12363267 -0.17199068
-0.0341511 0.13015001 -0.175777
-0.0093776975 0.135519 -0.1723945
0.018411299 0.133982 -0.175395
0.0339217 0.130307 -0.175281
0.05134875 0.1229215 -0.177256
-0.093318097 -0.16154599 -0.15654901
0.093723848 -0.161639 -0.15635401
-0.100256 -0.142737 -0.149415
-0.087554902 -0.14920899 -0.14812833
-0.076627299 -0.144711 -0.1490815
0.073809497 -0.14627799 -0.15287399
0.08610367 -0.14762649 -0.14711
0.100842 -0.142583 -0.14939301
-0.10721499 -0.129252 -0.14955033
-0.067729548 -0.1303955 -0.14998999
0.068153948 -0.1303395 -0.149749
0.107742 -0.12902732 -0.149644
-0.121614 -0.102587 -0.15835799
-0.114905 -0.103275 -0.14592201
-0.062072799 -0.108064 -0.144392
-0.052283347 -0.1078665 -0.155211
0.0526352 -0.1079285 -0.1550175
0.062409449 -0.107993 -0.143977
0.115343 -0.103053 -0.14602
0.121845 -0.102431 -0.158577
-0.123218 -0.086949453 -0.15328249
-0.044608831 -0.086739473 -0.15001434
0.044826102 -0.086575724 -0.14820534
0.123461 -0.086764947 -0.1534065
-0.12570851 -0.069254704 -0.14962074
-0.045203049 -0.075592801 -0.14258501
-0.027237941 -0.073868379 -0.148762
-0.0093770763 -0.078526847 -0.15077949
0.0122928 -0.078279667 -0.15144666
0.027056536 -0.074694671 -0.15132383
0.12577166 -0.070663832 -0.15129133
-0.128195 -0.049115449 -0.149939
0.12805133 -0.050002735 -0.14827833
-0.12964951 -0.030817024 -0.150364
0.13039833 -0.030949166 -0.15269966
-0.13033475 -0.011522598 -0.148919
0.130264 -0.011227132 -0.14872675
-0.13039799 0.011269514 -0.15053134
0.1302115 0.011505164 -0.15040633
-0.1283035 0.031547375 -0.15088375
0.12806326 0.031708073 -0.15084249
-0.1225845 0.052783176 -0.14975025
0.1223425 0.052858301 -0.1496765
-0.11641 0.068545602 -0.15355401
0.116178 0.068598203 -0.153354
-0.109026 0.081073798 -0.14772201
-0.098742999 0.095293596 -0.14307401
0.098513603 0.095306799 -0.142781
0.108796 0.081105404 -0.147486
-0.065645397 0.120932 -0.157482
-0.053836949 0.127865 -0.14774749
-0.033154201 0.135555 -0.151052
0.032924801 0.135585 -0.15093701
0.054242503 0.127102 -0.15145734
0.065416001 0.120982 -0.15695401
-0.0066593969 0.1405935 -0.15422601
0.0129747 0.14005899 -0.154075
-0.087908864 -0.12964399 -0.13815367
0.088463962 -0.129379 -0.13772599
-0.105842 -0.109303 -0.137859
-0.087427095 -0.1093014 -0.130863
-0.071791753 -0.108447 -0.13569149
0.072116047 -0.108234 -0.13494301
0.087181173 -0.11128625 -0.130991
0.106437 -0.108996 -0.137658
-0.1128625 -0.088121444 -0.1361905
-0.091367394 -0.090392165 -0.12627733
-0.066979498 -0.08896035 -0.132516
-0.000110473 -0.080760702 -0.121138
0.067220956 -0.0887153 -0.1313125
0.088663667 -0.091299593 -0.12467233
0.10893533 -0.0904691 -0.13345067
-0.10951819 -0.070176564 -0.12787519
-0.088594854 -0.075875252 -0.122051
-0.06769798 -0.073236719 -0.12645841
-0.048045814 -0.064580053 -0.12827466
-0.031217799 -0.071766734 -0.131231
-0.0063676601 -0.079399645 -0.13170299
0.0124177 -0.0788799 -0.129554
0.030593377 -0.071890898 -0.1318855
0.047351975 -0.067413405 -0.12970214
0.067855462 -0.072893158 -0.1250046
0.088868648 -0.075487599 -0.121147
0.1098688 -0.069757335 -0.12725279
-0.1239745 -0.05018165 -0.1376785
-0.11738367 -0.048081297 -0.12814666
0.11758367 -0.047623698 -0.12760334
0.12415799 -0.049794901 -0.1372035
-0.1228945 -0.026714999 -0.12963951
-0.117673 -0.034177501 -0.124132
0.117774 -0.033681098 -0.123649
0.12444267 -0.027264467 -0.13279001
-0.12505166 -0.013264447 -0.131126
0.124988 -0.01282817 -0.13078867
-0.12607713 0.010577119 -0.13059929
0.12587456 0.010954397 -0.13043459
-0.12437129 0.029849244 -0.128639
0.12412443 0.030138884 -0.12862886
-0.1228596 0.046616759 -0.13084158
0.1226158 0.046718296 -0.1308548
-0.116626 0.0663094 -0.132952
0.116395 0.066348702 -0.13290399
-0.107845 0.081969701 -0.128511
-0.0954092 0.097571902 -0.123859
0.095179804 0.097575203 -0.123764
0.107616 0.081975102 -0.128429
-0.085997298 0.108653 -0.13910501
-0.072981 0.11827 -0.136181
0.072751597 0.118271 -0.135856
0.085767902 0.108661 -0.138779
-0.049635299 0.131216 -0.13223
-0.036037099 0.137475 -0.124145
0.035807699 0.137475 -0.124145
0.049405999 0.13121501 -0.132149
-0.0095710969 0.1427815 -0.13506299
0.0187982 0.142349 -0.131329
-0.0094458144 -0.082693845 -0.1057935
0.0185533 -0.081332698 -0.105391
-0.090048999 -0.065574899 -0.1188785
-0.077172399 -0.061011702 -0.116953
-0.04509297 -0.066067666 -0.105515
-0.031898569 -0.073611699 -0.111222
-0.0143193 -0.079720102 -0.117144
0.0140994 -0.079725601 -0.117146
0.031699866 -0.073626198 -0.111227
0.045510624 -0.06475658 -0.10869075
0.077279299 -0.060639702 -0.116173
0.090253949 -0.065155603 -0.11806551
-0.105503 -0.050783001 -0.118292
-0.089549348 -0.048137255 -0.10837942
-0.068151057 -0.049587943 -0.10921299
-0.05527753 -0.056281466 -0.11045
0.055184264 -0.055282969 -0.108453
0.068117306 -0.048376158 -0.10719401
0.089273013 -0.048502501 -0.10874566
0.105695 -0.050289001 -0.117658
-0.1100688 -0.030947262 -0.1121246
0.1101018 -0.030347202 -0.11160021
-0.12065 -0.0023566501 -0.117609
-0.1133035 -0.010236787 -0.1075855
0.113181 -0.0095443456 -0.1072005
0.120497 -0.00184839 -0.117337
-0.121825 0.00688296 -0.118591
-0.11570249 0.0077185151 -0.1080555
0.1154895 0.0083269402 -0.1078425
0.12162 0.0073573701 -0.118397
-0.120154 0.0220287 -0.115901
-0.1170036 0.032442201 -0.10889959
0.1174912 0.029241001 -0.11123339
-0.1180875 0.052677874 -0.11043376
0.117537 0.050386261 -0.1092608
-0.1135745 0.069277957 -0.10953
0.113345 0.069337651 -0.109554
-0.1049475 0.084041253 -0.1066965
-0.092508197 0.098947302 -0.108297
0.092278801 0.098947398 -0.108297
0.10471851 0.084041253 -0.1066965
-0.081407502 0.110877 -0.119624
-0.077513598 0.112154 -0.105159
0.077284202 0.112154 -0.105159
0.081178099 0.110879 -0.119516
-0.063342854 0.122446 -0.1104465
-0.0499704 0.131099 -0.11361
-0.038711999 0.136658 -0.106832
0.038482599 0.136658 -0.106832
0.049741 0.131099 -0.11361
0.063113503 0.122446 -0.1104055
-0.024822799 0.14144 -0.108497
-0.000114694 0.14402901 -0.108855
0.0245934 0.14144 -0.108497
-0.025991499 -0.085177399 -0.086487755
-0.0089242319 -0.090008624 -0.088559471
0.0130996 -0.089969248 -0.087519005
0.025762051 -0.085176051 -0.086485744
-0.051234651 -0.064286605 -0.090645656
-0.037916899 -0.076167203 -0.091868497
0.037697501 -0.076167703 -0.091864303
0.051044799 -0.064299703 -0.090647504
-0.085550666 -0.041407801 -0.088687599
-0.069166072 -0.047661722 -0.092054866
-0.0562445 -0.0566842 -0.099596098
0.056105901 -0.056394599 -0.098993503
0.06903445 -0.04680955 -0.091075346
0.086686164 -0.040401965 -0.092511296
-0.096077777 -0.033565085 -0.088628747
0.0942185 -0.035530917 -0.087574475
-0.1026885 -0.012848631 -0.092150003
-0.096402504 -0.0128675 -0.080217302
0.0983679 -0.0199502 -0.084504902
0.102532 -0.011791505 -0.0915948
-0.10440741 0.010027746 -0.091474473
-0.099435203 0.0083502 -0.085272498
0.099205501 0.0090149902 -0.085097603
0.103318 0.0083691422 -0.090399124
-0.10763925 0.031445324 -0.08772748
0.107452 0.029481579 -0.089168377
-0.1133876 0.049652278 -0.086430877
0.11315741 0.049996119 -0.086540364
-0.11232226 0.067261346 -0.087205306
0.11209325 0.067367829 -0.087247699
-0.102291 0.085376903 -0.088698
-0.090654202 0.099519603 -0.096968003
0.090424798 0.099519499 -0.096968003
0.102062 0.085376903 -0.088698
-0.088729598 0.100031 -0.084233403
-0.074670449 0.11255 -0.087366745
0.074441046 0.11255 -0.087366745
0.088500202 0.100031 -0.084233403
-0.060656399 0.122466 -0.090481102
-0.048583999 0.1303975 -0.089589804
-0.0352824 0.136757 -0.091172501
0.035053 0.136757 -0.091172501
0.0483546 0.1303975 -0.089589804
0.060426999 0.122466 -0.090481102
-0.0189608 0.14185099 -0.0866616
0.0187314 0.14185099 -0.0866616
-0.000114694 -0.10296 -0.063228004
-0.045482699 -0.080894202 -0.067391999
-0.032319102 -0.089005373 -0.071266264
-0.0064276471 -0.097867846 -0.072471797
0.0125112 -0.099593401 -0.067445599
0.032089699 -0.089003332 -0.071263403
0.045253299 -0.080889903 -0.067386001
-0.063104197 -0.060727399 -0.068371303
-0.05216597 -0.069891132 -0.075462565
0.051948737 -0.069890767 -0.075457305
0.062889501 -0.060729802 -0.068370402
-0.087382734 -0.044558484 -0.068619661
-0.074406937 -0.048690639 -0.073120832
0.074219339 -0.04857824 -0.072997645
0.087201707 -0.044293616 -0.068393506
-0.094520189 -0.030884378 -0.069957152
0.094335288 -0.03019961 -0.069472641
-0.095092118 -0.010175076 -0.071297638
0.095066719 -0.0099512422 -0.072267175
-0.096553423 0.008314929 -0.069223873
0.09632571 0.0085090594 -0.069169685
-0.103417 0.035494599 -0.065212533
-0.0995804 0.024504149 -0.066910803
0.099351093 0.024588451 -0.066913396
0.103188 0.035592135 -0.065222196
-0.1096616 0.051302601 -0.068594918
0.1094322 0.051476859 -0.068646885
-0.110023 0.068475366 -0.069250099
0.10979334 0.068526231 -0.069269069
-0.10085399 0.0849289 -0.069663703
-0.086715803 0.099466197 -0.062656797
0.086486399 0.099466197 -0.062656797
0.1006245 0.0849289 -0.069663703
-0.069451801 0.114552 -0.063479804
0.069222398 0.114552 -0.063479804
-0.053821951 0.1249745 -0.0694841
-0.033098601 0.134901 -0.067163303
0.032869302 0.134901 -0.067163303
0.053592551 0.1249745 -0.0694841
-0.0044556092 0.142268 -0.069440968
0.012908 0.14100701 -0.064507298
-0.029563099 -0.104294 -0.04678005
-0.0062725972 -0.10871 -0.05048025
0.0122011 -0.107143 -0.0528749
0.029333699 -0.104294 -0.04678005
-0.048404966 -0.089863203 -0.047299903
-0.035191301 -0.097270302 -0.0539825
0.034961902 -0.097270302 -0.0539825
0.048175603 -0.089862876 -0.047299463
-0.068871304 -0.066002175 -0.048271101
-0.054856401 -0.0775548 -0.056184102
0.054627001 -0.077552803 -0.056181502
0.06864357 -0.066002175 -0.048270874
-0.088735595 -0.050072335 -0.047245231
-0.074460737 -0.055845067 -0.056099702
0.074241064 -0.055846099 -0.056100201
0.088512808 -0.050070386 -0.047244493
-0.094840743 -0.028440116 -0.050950214
0.094617516 -0.028436152 -0.050948735
-0.096103415 -0.010272614 -0.05222068
0.0958758 -0.010267897 -0.05221932
-0.09789744 0.0067336783 -0.048450582
0.097668014 0.0067367614 -0.0484499
-0.10154767 0.029390732 -0.046892565
-0.099863902 0.024305601 -0.056054801
0.099709548 0.023154099 -0.051389948
0.1020855 0.033074401 -0.046973802
-0.10612533 0.050171465 -0.048418332
0.105896 0.050197702 -0.048428833
-0.10472933 0.072822236 -0.049846232
0.10449967 0.072831474 -0.049849536
-0.094642803 0.087555803 -0.042794
0.094413497 0.087555803 -0.042794
-0.0688302 0.11302049 -0.0428119
0.068600804 0.11302049 -0.042811848
-0.053616703 0.1237925 -0.051246449
-0.035794199 0.131236 -0.0425818
-0.009709497 0.1379385 -0.045706548
0.019075001 0.136435 -0.042374
0.035564799 0.131236 -0.0425818
0.053387299 0.1237925 -0.051246449
-0.0122479 -0.122071 -0.021118199
0.0120185 -0.122071 -0.021118199
-0.045442201 -0.104121 -0.0294479
-0.027767899 -0.114368 -0.029289534
-0.0061748973 -0.1161685 -0.0353221
0.0120057 -0.114617 -0.0377503
0.027538465 -0.114368 -0.029289534
0.045212802 -0.104121 -0.0294479
-0.0652325 -0.085919902 -0.0266749
-0.056065049 -0.095583402 -0.02718205
0.05583575 -0.095583454 -0.02718205
0.065003201 -0.085919902 -0.0266749
-0.084928751 -0.064859934 -0.029358067
-0.073072873 -0.072461464 -0.032582939
0.072843522 -0.072461441 -0.032582939
0.084699385 -0.064859934 -0.029358067
-0.093227521 -0.052045278 -0.032913201
0.092998147 -0.052045278 -0.032913201
-0.10190301 -0.028309351 -0.02654955
-0.097850598 -0.033156 -0.035885099
0.097621202 -0.033156 -0.035885099
0.10167401 -0.028309351 -0.02654955
-0.10271767 -0.0079044234 -0.031847566
-0.099147297 -0.0194973 -0.0386623
0.098917998 -0.0194973 -0.0386623
0.10248766 -0.0079044234 -0.031847566
-0.10258567 0.006410379 -0.031168202
0.10235666 0.0064103655 -0.031168202
-0.1023834 0.029242521 -0.029835161
0.1021538 0.029242519 -0.029835159
-0.10358775 0.049381901 -0.031064223
0.1033585 0.049389973 -0.031067224
-0.102118 0.067443199 -0.026619401
-0.097614303 0.077233702 -0.0205136
0.0973849 0.077233702 -0.0205136
0.101888 0.067443199 -0.026619401
-0.08866635 0.092145853 -0.02746835
0.088436946 0.092145853 -0.02746835
-0.070890099 0.1091185 -0.0212966
0.070660755 0.1091185 -0.0212966
-0.051977001 0.122096 -0.021878799
-0.032476 0.12966749 -0.021755351
-0.000114694 0.1346 -0.022351701
0.032246649 0.12966749 -0.021755351
0.051747601 0.122096 -0.021878799
-0.030415451 -0.123187 -0.0072817402
-0.000114694 -0.12504099 -0.0139645
0.030185951 -0.123187 -0.0072817402
-0.05313845 -0.10829151 -0.0114302
0.05290905 -0.10829151 -0.0114302
-0.088163704 -0.081316799 -0.00066123402
-0.073720366 -0.087467767 -0.013228371
0.073491029 -0.087467767 -0.013228369
0.0879343 -0.081316799 -0.00066123402
-0.088365451 -0.072186373 -0.012645019
0.088136077 -0.072186381 -0.012645045
-0.097082704 -0.055442102 -0.015001399
0.096853301 -0.055442102 -0.015001399
-0.10657275 -0.029785724 -0.0095477253
0.1063435 -0.02978575 -0.0095477151
-0.1097315 -0.010477917 -0.011593345
0.1095025 -0.010477916 -0.011593355
-0.10793167 0.014348847 -0.010031084
0.10770199 0.014348847 -0.010031083
-0.10498401 0.032893568 -0.011744157
0.10475433 0.032893535 -0.011744156
-0.102657 0.051940668 -0.0098798238
0.10242767 0.051940668 -0.0098798238
-0.100457 0.0655872 -0.0094788801
0.100227 0.065587103 -0.0094788801
-0.089002967 0.0887051 -0.0057028304
0.088773571 0.0887051 -0.0057028309
-0.072248995 0.1054425 -0.00195404
-0.054163199 0.118558 -0.0037647099
0.053933799 0.118558 -0.0037647099
0.072019607 0.1054425 -0.00195402
-0.0439918 0.123388 -0.0039367601
-0.032340199 0.12718 -0.00396166
-0.0091162967 0.130384 -0.0024682905
0.0178886 0.130173 -0.0045612901
0.032110799 0.12718 -0.00396166
0.043762401 0.123388 -0.0039368002
-0.054942399 -0.121489 0.0165978
-0.0331572 -0.12876099 0.01128238
-0.0062869973 -0.13120601 0.0052539916
0.0122299 -0.129573 0.00027402199
0.0329278 -0.12876099 0.01128238
0.054713 -0.121489 0.0165978
-0.07081525 -0.1071915 0.01146454
-0.0499577 -0.117104 0.00065318198
0.0497283 -0.117104 0.00065318198
0.070585847 -0.1071915 0.01146454
-0.086981401 -0.090579152 0.011636745
-0.072083898 -0.099369198 0.00054784899
0.071854502 -0.099369198 0.00054784899
0.086751997 -0.090579152 0.011636745
-0.097544052 -0.072615951 0.012707345
0.097314656 -0.072615951 0.012707345
-0.1026455 -0.054775301 0.0063008503
0.1024165 -0.054775301 0.0063008503
-0.11059201 -0.031624727 0.010790313
0.1103625 -0.031624697 0.010790313
-0.113643 -0.013011663 0.0081173964
0.113414 -0.01301163 0.0081173964
-0.11255575 0.0099243289 0.010064635
0.11232625 0.0099243289 0.010064635
-0.1091152 0.030729901 0.0081521459
0.108886 0.030729901 0.0081521664
-0.105077 0.048967451 0.0098282406
0.10484774 0.048967402 0.0098282406
-0.1010495 0.064803049 0.0073059052
-0.098071851 0.073716149 0.0061324639
0.0978425 0.073716149 0.0061324639
0.1008205 0.064803101 0.0073059052
-0.090468101 0.085377 0.0170238
-0.0796699 0.097674303 0.0154915
0.079440601 0.0976744 0.0154915
0.090238698 0.085377 0.0170238
-0.0675539 0.107603 0.0139162
-0.0549573 0.115475 0.0126128
0.054727901 0.115475 0.0126128
0.067324497 0.107603 0.0139162
-0.044295602 0.120392 0.0119316
-0.032952249 0.1242675 0.0099157803
-0.0081926472 0.12757349 0.0125583
0.016041299 0.12739 0.0104509
0.032722849 0.1242675 0.0099157803
0.044066198 0.120392 0.0119316
-0.060943101 -0.122903 0.0302059
-0.047415499 -0.1299755 0.03189135
-0.032269899 -0.135166 0.033769101
-0.007517647 -0.137328 0.0308196
0.0146912 -0.135461 0.022840001
0.032040499 -0.135166 0.033769101
0.047186099 -0.1299755 0.03189135
0.060713701 -0.122903 0.0302059
-0.082788602 -0.1056435 0.031517401
-0.072390102 -0.114126 0.027667649
0.072160698 -0.114126 0.027667649
0.082559198 -0.1056435 0.031517401
-0.091333173 -0.092908949 0.0284086
0.091103822 -0.092908949 0.0284086
-0.101204 -0.074154504 0.0294466
0.100975 -0.074154504 0.0294466
-0.107018 -0.056809448 0.02934845
0.1067885 -0.056809399 0.02934845
-0.112947 -0.0299726 0.028913099
0.11271749 -0.02997255 0.028913099
-0.1152765 -0.0026920144 0.029644951
0.1150475 -0.0026920144 0.029644951
-0.114671 0.0131718 0.030367199
0.114442 0.0131718 0.030367199
-0.11250701 0.030677333 0.032933231
0.11227801 0.030677333 0.032933202
-0.1080195 0.048040278 0.029970601
0.10779 0.048040278 0.029970601
-0.10217901 0.064118601 0.025847699
-0.097731695 0.074056804 0.032250751
0.097502351 0.074056804 0.032250751
0.10195 0.064118601 0.025847699
-0.085643247 0.089872956 0.032473348
0.085413948 0.089872956 0.032473348
-0.068272501 0.105488 0.029953601
-0.049685448 0.1154705 0.028568901
0.049456101 0.1154705 0.028568901
0.068043098 0.105488 0.029953601
-0.030527266 0.12208799 0.029661166
-0.0076045669 0.12544399 0.028063949
0.014865 0.125092 0.025851
0.030297866 0.12208801 0.029661169
-0.0115174 -0.142093 0.056680702
0.0112879 -0.142093 0.056680702
-0.06816905 -0.121886 0.04723255
-0.056162599 -0.129885 0.051665802
-0.028666833 -0.13833934 0.050142467
0.0198943 -0.13921501 0.043287199
0.032709002 -0.1379015 0.053570099
0.055933099 -0.129885 0.051665802
0.067939654 -0.121886 0.04723255
-0.08497265 -0.107894 0.051413901
-0.078389503 -0.113562 0.0438536
0.078160197 -0.113562 0.0438536
0.084743246 -0.107894 0.051413901
-0.095151238 -0.093415 0.049206734
0.094921865 -0.09341497 0.049206704
-0.1040265 -0.073397301 0.04961415
0.1037975 -0.073397301 0.04961415
-0.1109855 -0.049050249 0.04847635
0.110756 -0.049050249 0.04847635
-0.114813 -0.0232275 0.041825201
0.114584 -0.0232275 0.041825201
-0.115838 -0.00838455 0.049653798
0.115609 -0.00838455 0.049653701
-0.114996 0.012049053 0.051166326
0.1147665 0.012049053 0.051166326
-0.112078 0.034100074 0.050351001
0.1118485 0.0341001 0.050351001
-0.1070084 0.052798174 0.049674321
0.1067792 0.052798174 0.049674321
-0.101983 0.066060103 0.045506898
-0.098110802 0.0761704 0.054327801
0.097881399 0.0761704 0.054327801
0.101754 0.066060103 0.045506898
-0.087023564 0.090917498 0.051345866
0.086794168 0.090917498 0.051345866
-0.071474969 0.10525733 0.0532078
-0.050625149 0.11542825 0.049934126
-0.036798701 0.119937 0.042498101
0.0365692 0.119937 0.042498101
0.050395802 0.11542825 0.049934126
0.071245559 0.10525733 0.0532078
-0.029094599 0.1238515 0.055165399
-0.0067385971 0.1279085 0.049113803
0.013133099 0.1268025 0.04726845
0.0288652 0.1238515 0.055165399
-0.0096905343 -0.14307199 0.06728927
0.01424904 -0.1429275 0.070020705
-0.063201703 -0.12627199 0.067721002
-0.047335301 -0.13433999 0.067516297
-0.0333363 -0.139534 0.071836002
0.033107001 -0.139534 0.071836002
0.047085501 -0.13434151 0.067520551
0.062931553 -0.126275 0.067729451
-0.087765366 -0.10453699 0.068311803
-0.076352201 -0.116264 0.068676054
0.07607805 -0.116266 0.068680651
0.08750353 -0.10453833 0.068312332
-0.10012 -0.081289403 0.077934101
-0.096182466 -0.091987364 0.068000533
0.096927598 -0.089312822 0.070482299
-0.104634 -0.070324197 0.072027601
0.104342 -0.070325099 0.072017297
-0.10968333 -0.052454401 0.068454839
0.10937367 -0.0524556 0.068441667
-0.11328433 -0.029728467 0.072976001
0.11293933 -0.029734233 0.072956465
-0.1149945 -0.01143275 0.0720267
0.1147135 -0.0114388 0.07201755
-0.114708 0.0066730352 0.069874153
0.114471 0.0066721551 0.069872797
-0.11297184 0.029721534 0.072034016
0.11274251 0.029721534 0.072034024
-0.10895 0.049045675 0.069878697
0.108721 0.049045675 0.069878697
-0.10354525 0.068934776 0.071473174
0.10331625 0.068934768 0.071473174
-0.09466137 0.087765403 0.071622729
0.094431952 0.087765425 0.071622722
-0.081801899 0.102467 0.071589999
-0.067338027 0.11241933 0.070561364
-0.053629201 0.118262 0.067939103
0.053399801 0.118262 0.067939103
0.067108698 0.11241933 0.070561372
0.081572503 0.102467 0.071589999
-0.046028566 0.12493566 0.074310668
-0.028157625 0.13185224 0.071686827
-0.0083722984 0.13626334 0.0701892
0.01227175 0.13621551 0.0708929
0.027928274 0.13185225 0.071686827
0.045799267 0.12493566 0.074310668
-0.000114694 0.141828 0.078767397
-0.02549665 -0.141241 0.087000102
-0.0041795424 -0.14442433 0.090424769
0.0120798 -0.144087 0.090276897
0.025235649 -0.14124399 0.087009549
-0.069076903 -0.121105 0.083975099
-0.052545201 -0.131156 0.091229737
-0.038882401 -0.137609 0.083388597
0.038571399 -0.137615 0.083405398
0.052054867 -0.13117634 0.091287501
0.068566501 -0.121122 0.084014602
-0.0812039 -0.107241 0.093059048
-0.071704298 -0.117107 0.096167803
0.071043797 -0.117137 0.096221998
0.080630347 -0.10725451 0.093076348
-0.093420476 -0.091941953 0.088654801
0.093077824 -0.091943756 0.088652924
-0.103889 -0.066344798 0.088625602
-0.099562898 -0.076743901 0.094415903
0.099234402 -0.076742001 0.094399303
0.103503 -0.066345699 0.0885996
-0.107458 -0.047670301 0.098496102
0.106802 -0.049725201 0.095267199
-0.112144 -0.026469251 0.094802648
0.1109695 -0.028800299 0.095776245
-0.113613 -0.0045409692 0.092557631
0.11333833 -0.004425176 0.092508905
-0.11415 0.0106991 0.085135102
0.11392 0.0106991 0.085135102
-0.11350867 0.029384034 0.092189468
0.11327934 0.029384034 0.092189468
-0.11024866 0.050026566 0.0877074
0.11001901 0.050026566 0.0877074
-0.10543434 0.073953062 0.092769869
0.105205 0.073953032 0.092769869
-0.096708268 0.091866009 0.089366563
0.096478902 0.091865994 0.089366563
-0.085584797 0.104127 0.086445399
-0.073961467 0.114453 0.087816931
0.0737321 0.114453 0.087816931
0.085355401 0.104127 0.086445399
-0.0673493 0.124774 0.098482497
-0.050320368 0.13276567 0.091268569
-0.032866601 0.139393 0.086535998
0.032637201 0.139393 0.086535998
0.050091032 0.13276567 0.091268569
0.0671198 0.124774 0.098482497
-0.042654201 0.141082 0.096841298
-0.026666502 0.144545 0.092299573
-0.0062363967 0.14793649 0.091068819
0.01212875 0.1467685 0.089855254
0.026437102 0.144545 0.092299573
0.042424802 0.141082 0.096841298
-0.015876601 -0.14335801 0.106142
0.0156024 -0.143364 0.106163
-0.0614402 -0.123624 0.107627
-0.0499264 -0.130714 0.112794
-0.034975149 -0.13770801 0.1128975
0.034553301 -0.137733 0.1129765
0.049426399 -0.13075599 0.112896
0.060821299 -0.123665 0.107716
-0.072951697 -0.111637 0.109573
0.072390497 -0.111658 0.109612
-0.087451063 -0.089762866 0.11276466
0.087081701 -0.089597166 0.11263967
-0.102417 -0.061843101 0.10602
-0.096434496 -0.074228004 0.110926
0.0961022 -0.073920101 0.110709
0.101977 -0.061606001 0.105859
-0.105124 -0.045200601 0.118939
0.105267 -0.045446299 0.111704
-0.1099415 -0.027628351 0.11331899
0.1093225 -0.025946502 0.1142065
-0.1120845 -0.0063863951 0.1178665
0.1118245 -0.0058635203 0.1176975
-0.113596 0.0099850297 0.102615
0.113371 0.0101079 0.102587
-0.1135165 0.028162502 0.1094185
0.1132885 0.02818845 0.10941251
-0.11238366 0.049219366 0.111388
0.11215466 0.0492188 0.111388
-0.10971225 0.069363579 0.11105876
0.10948275 0.069363579 0.11105876
-0.10420325 0.089228652 0.1101165
-0.0985412 0.098017 0.108774
0.098311901 0.098017 0.108774
0.10397425 0.089228615 0.1101165
-0.090748794 0.10853034 0.11251966
0.090519428 0.10853034 0.11251966
-0.074098736 0.12708966 0.11133633
0.07386937 0.12708966 0.11133633
-0.049299274 0.14550051 0.110605
-0.029286262 0.15386625 0.11190201
-0.0072518177 0.15641199 0.1091122
0.011780466 0.15634733 0.10970033
0.029056875 0.15386625 0.11190201
0.049069896 0.1455005 0.11060499
-0.000114694 0.160568 0.118415
-0.0208668 -0.142278 0.120387
-0.000131774 -0.144398 0.123868
0.020536801 -0.14229 0.120434
-0.04833445 -0.12806851 0.13152701
-0.0274985 -0.139529 0.131759
0.027186001 -0.13955399 0.13181899
0.048082851 -0.128023 0.13148451
-0.067387097 -0.111704 0.12558134
0.067205302 -0.11147967 0.125301
-0.081767544 -0.08578255 0.1326755
-0.073991902 -0.097502097 0.13503499
0.074171402 -0.096540399 0.133986
0.081868351 -0.084566154 0.13156649
-0.092259794 -0.067013763 0.13262933
0.091508202 -0.068774201 0.128916
-0.1019415 -0.050132953 0.12583649
-0.099157602 -0.051990502 0.13381501
0.097030431 -0.0517371 0.13637233
0.10199951 -0.048027799 0.1237865
-0.106399 -0.031574335 0.13297401
0.105588 -0.030867433 0.13502
-0.1115305 -0.0062452098 0.135095
0.11062 -0.009615317 0.13371234
-0.112952 0.01198981 0.12867934
0.11273199 0.012288774 0.128611
-0.1139805 0.034173001 0.1309285
0.113752 0.034167349 0.13092801
-0.1142075 0.049675599 0.13091251
0.113979 0.049669802 0.1309115
-0.112427 0.067314655 0.129666
0.112198 0.067313202 0.12966549
-0.105206 0.091023721 0.12919399
0.10497619 0.091023698 0.12919399
-0.092821047 0.1142785 0.1322985
0.092591703 0.1142785 0.1322985
-0.085912548 0.12688451 0.12962949
-0.073407948 0.13769001 0.12289201
0.073178552 0.13769001 0.12289201
0.085683152 0.12688451 0.12962949
-0.070179254 0.14843075 0.13298975
-0.049102921 0.15401879 0.1252818
-0.030055633 0.159481 0.12488367
0.029826233 0.159481 0.12488367
0.048873544 0.15401879 0.1252818
0.069949873 0.14843075 0.13298975
-0.047920499 0.161588 0.1382215
-0.029561132 0.163895 0.13316767
-0.0053143105 0.16632633 0.13089918
0.010284516 0.16637333 0.13120033
0.029331734 0.16389532 0.13316767
0.047691099 0.161588 0.1382215
-0.1105185 -0.34810501 0.159444
0.107594 -0.35032648 0.15952399
-0.021818999 -0.140965 0.14609601
-0.0065376167 -0.14391899 0.147816
0.0126864 -0.143534 0.140927
0.021602901 -0.140977 0.146118
-0.04797145 -0.124953 0.14823151
-0.033013836 -0.13550834 0.15160267
0.032948565 -0.13546233 0.15150265
0.048126847 -0.12453601 0.14751649
-0.066056401 -0.104566 0.14456201
-0.057887502 -0.1141005 0.14864901
0.057394601 -0.1140735 0.148149
0.064071998 -0.102194 0.15195751
0.110372 -0.107458 0.159373
-0.105169 -0.083194502 0.15906601
-0.07325463 -0.087895982 0.15386376
0.072372548 -0.086715579 0.15227899
0.093958303 -0.089964852 0.15835801
0.107436 -0.093450204 0.157764
-0.1042845 -0.068141103 0.1551685
-0.087502718 -0.073016182 0.15102485
0.076824799 -0.077772602 0.156165
0.087491229 -0.070115432 0.14784984
0.1079828 -0.070377238 0.1551756
-0.1063926 -0.051381923 0.15142199
-0.097381532 -0.054844633 0.14430833
0.097318999 -0.05405385 0.14429051
0.10796151 -0.047306266 0.15075533
-0.10898113 -0.032547362 0.14903538
0.10893729 -0.030551126 0.14879356
-0.1120745 -0.010241158 0.151041
0.11164328 -0.0099539692 0.14981057
-0.11347441 0.011863453 0.1511568
0.11319933 0.010598305 0.15167934
-0.115073 0.029039498 0.149563
0.1148515 0.029295124 0.14955226
-0.11621533 0.049613804 0.15117367
0.115992 0.049651965 0.15118001
-0.11375767 0.069297202 0.14806801
0.11353099 0.069290765 0.14806734
-0.10774533 0.088684 0.15152399
0.10751734 0.088682532 0.15152366
-0.0981436 0.1096215 0.14694199
0.097914204 0.109622 0.14694199
-0.092530131 0.12967575 0.148151
0.092300773 0.12967575 0.148151
-0.08772587 0.14485 0.15478468
-0.072404251 0.154305 0.14560199
0.072174877 0.154305 0.145602
0.087496459 0.14485 0.15478468
-0.065732099 0.163728 0.15498
-0.0468916 0.17036332 0.15073299
-0.030091248 0.17312767 0.14701515
-0.0059159971 0.17695349 0.14704049
0.0114879 0.17793 0.14861999
0.029861867 0.17312767 0.14701517
0.04666223 0.17036332 0.15073299
0.065502748 0.163728 0.15498
-0.0222886 0.185715 0.159219
-0.0059912167 0.1848585 0.156185
0.0116383 0.186156 0.15781701
0.0220592 0.185715 0.159219
-0.12674433 -0.38590702 0.17640668
-0.109766 -0.38962132 0.17368475
-0.091088161 -0.38848889 0.1761772
-0.076116197 -0.38536301 0.17934801
0.075781301 -0.385315 0.17949
0.091026284 -0.38850439 0.17584272
0.1096672 -0.38957295 0.17290093
0.12610717 -0.38558033 0.17533566
-0.13049468 -0.37024722 0.172251
-0.1096804 -0.37158579 0.164076
-0.09084674 -0.37299922 0.168044
-0.075328447 -0.37205634 0.17634933
0.075123481 -0.37137818 0.17543401
0.089331195 -0.37097025 0.16628499
0.10695016 -0.37102255 0.16288628
0.13129167 -0.37000877 0.17209888
-0.12996155 -0.34785044 0.17064156
-0.10804067 -0.35865998 0.16040233
-0.089880802 -0.35388398 0.16401699
-0.076697893 -0.35135999 0.17331569
0.075676754 -0.350086 0.17453849
0.089919001 -0.3517282 0.16352482
0.115232 -0.357061 0.16007701
0.1292455 -0.34946233 0.16941337
-0.12730134 -0.33077237 0.17313634
-0.11147534 -0.33192033 0.16178285
-0.091095768 -0.33232138 0.16617167
-0.07824453 -0.33425936 0.17664333
0.078260429 -0.33330968 0.17665768
0.091320783 -0.33054948 0.16698267
0.111787 -0.3297638 0.16316134
0.12692 -0.33122772 0.17287529
-0.12181201 -0.31402001 0.17414498
-0.11049271 -0.31047997 0.16944443
-0.091917336 -0.3133586 0.17307499
0.092124149 -0.31270617 0.1734384
0.11081429 -0.30960485 0.17064543
0.121981 -0.31354666 0.17521434
-0.10868945 -0.28940865 0.17604472
-0.097875394 -0.29127932 0.17752068
0.09801773 -0.29100534 0.17743467
0.10964221 -0.2900916 0.17606421
-0.10926051 -0.2734735 0.1787295
0.1059465 -0.27425122 0.1785855
-0.107668 -0.25075501 0.179454
-0.099857002 -0.24356601 0.179207
0.1039535 -0.2437575 0.179644
-0.11052901 -0.22946951 0.17763551
-0.094550498 -0.2267835 0.17790399
0.095005699 -0.2265785 0.178123
0.110967 -0.229298 0.17836949
-0.120001 -0.213809 0.17942201
-0.11007901 -0.212809 0.1752165
-0.093730129 -0.20936733 0.17534
0.091231346 -0.210656 0.17632151
0.10730001 -0.210572 0.17507935
-0.123957 -0.18197501 0.179986
-0.10983625 -0.19346075 0.173464
-0.089869797 -0.19254132 0.17407601
0.090603061 -0.19241667 0.17395133
0.107355 -0.19284301 0.17264833
0.120224 -0.195141 0.17761201
-0.11209434 -0.17502666 0.17143868
-0.089587018 -0.17358676 0.172315
0.090456948 -0.17347524 0.17217375
0.112974 -0.17502134 0.17187367
-0.124091 -0.15730301 0.178104
-0.10972467 -0.153253 0.16886432
-0.086191475 -0.1523755 0.17200799
-0.077762403 -0.153791 0.17686801
-0.014979349 -0.141451 0.16954851
0.0148576 -0.14145949 0.16954249
0.0786594 -0.15324999 0.17573901
0.087218747 -0.151777 0.1709455
0.11071134 -0.15295233 0.16880466
0.124806 -0.157381 0.17885999
-0.123081 -0.131924 0.173816
-0.109501 -0.13078366 0.1662
-0.090552948 -0.13564 0.17072999
-0.075953551 -0.1293955 0.1776565
