ply
format ascii 1.0
comment PCL generated
element vertex 1380
property float x
property float y
property float z
element camera 0
property float view_px
property float view_py
property float view_pz
property float x_axisx
property float x_axisy
property float x_axisz
property float y_axisx
property float y_axisy
property float y_axisz
property float z_axisx
property float z_axisy
property float z_axisz
property float focal
property float scalex
property float scaley
property float centerx
property float centery
property int viewportx
property int viewporty
property float k1
property float k2
end_header
0.03625685 0.23205286 0.062385686
-0.025827471 0.15335979 0.038688377
0.086566873 0.11999109 0.068313017
-0.0014527272 0.10350658 0.074920587
0.0074795634 0.068936594 0.37582713
0.101579 0.16504338 0.29878578
0.068846717 0.13104002 0.34015363
-0.10007931 0.045056086 0.41573948
0.016080158 0.11670067 0.34818995
0.074888982 0.12096083 0.37810171
-0.0043469518 0.0081406087 0.39670283
-0.011460297 0.097097471 0.38411671
-0.026300341 0.074756242 0.35212228
0.096881606 0.048047479 0.42617503
0.10280123 0.13704413 0.39279714
0.086045638 0.11408529 0.27926445
0.011797771 0.094386175 0.37624413
0.10097258 0.081193574 0.25975403
-0.0052003264 0.11199362 0.29663178
0.095019162 0.1171047 0.27572563
0.086937584 0.098980874 0.24867596
0.02854567 0.11187616 0.26258311
0.15994555 0.12583263 0.26751459
-0.050897352 0.24101019 0.33818409
-0.025400342 0.19952384 0.33259904
-0.045490067 0.18659666 0.30218446
0.014877148 0.22068268 0.34889209
-0.00894803 0.21713911 0.33440539
-0.042963762 0.1819662 0.36375776
0.09228988 0.16993791 0.36490533
0.038474526 0.17946661 0.34858596
-0.024178388 0.20690233 0.42990273
-0.0055382941 0.18018198 0.35759985
0.047887009 0.24268469 0.36725169
0.044571452 0.20756447 0.38821524
-0.025071148 0.22784482 0.28332484
-0.0050600804 0.15796258 0.37401119
0.017405417 0.1636734 0.41182673
-0.099129409 0.2378675 0.36150485
-0.12912415 0.25699174 0.32337567
-0.024128383 0.24423435 0.34240958
-0.096284024 0.26326606 0.37998614
-0.067850597 0.26002994 0.37465462
-0.0061801225 0.26129431 0.33604929
-0.0037026303 0.2193487 0.38250878
-0.071693301 0.15176481 0.3823691
-0.063176751 0.21326065 0.31245089
0.012316349 0.20325364 0.3027913
-0.050458003 0.18755843 0.32656562
-0.000279014 0.15904254 0.37908658
-0.0333458 0.124973 0.33094412
-0.039383143 0.19215246 0.32981271
-0.0045228535 0.13960443 0.3844673
0.014698651 0.22172345 0.35604605
-0.021377586 0.092147104 0.40347672
0.081083186 0.22176889 0.30909222
-0.033848979 0.1855693 0.4079347
-0.05082307 0.15767527 0.37017059
-0.059687115 0.17698589 0.28079885
-0.069436349 0.23989557 0.41416126
-0.05328659 0.19839914 0.37732196
0.019613942 0.17596474 0.4216935
0.012982612 0.21945032 0.39434475
-0.012181878 0.12459798 0.34399247
-0.033670671 0.18390658 0.41945761
0.016585253 0.25568044 0.39799866
-0.074696608 0.20716663 0.34471443
-0.067832842 0.19878675 0.31811666
-0.11106959 0.1682114 0.32640958
-0.046444569 0.21972698 0.37563124
0.011255037 0.19933039 0.40541288
-0.065479852 0.16599275 0.39317396
-0.0092518106 0.21165946 0.34975067
-0.055929519 0.24609444 0.33753932
-0.077321157 0.20828009 0.41291958
-0.016337676 0.24147275 0.27658486
-0.0031170957 0.19424821 0.3367784
0.0090796724 0.16331129 0.41889134
-0.036548957 0.24035007 0.33362645
-0.10054621 0.16521886 0.3848753
-0.13580839 0.23237261 0.31986111
-0.036999255 0.17630044 0.4350884
-0.068735667 0.17030749 0.40018302
-0.046229724 0.17834277 0.3249777
-0.036354546 0.20568278 0.39239112
0.033056114 0.21643484 0.2949211
-0.0021405816 0.16048238 0.39241871
-0.034192611 0.15875083 0.33060032
-0.048980527 0.17992157 0.45289963
0.0086498372 0.27652922 0.37578759
-0.017325597 0.21509224 0.36490291
-0.092767328 0.18956266 0.32507116
-0.066810325 0.24613805 0.3718636
-0.064309582 0.18034671 0.38416609
-0.039546352 0.28277433 0.31719276
-0.026196122 0.26546344 0.34322158
-0.091499023 0.13064036 0.29540464
-0.033049792 0.30781665 0.3230789
-0.10822493 0.20181945 0.29313901
-0.092027992 0.2139748 0.33366448
0.0097434223 0.16676925 0.33684367
-0.11527427 0.1767275 0.30236879
-0.093142495 0.25888073 0.3321501
0.0021623336 0.22658226 0.40141562
-0.0093501657 0.24865623 0.36584798
-0.047855366 0.23961939 0.3634381
-0.072194442 0.26592749 0.39365545
-0.065934286 0.2672343 0.4085941
-0.043364957 0.1788522 0.38189676
0.016724024 0.14203864 0.39414382
-0.012818374 0.13682713 0.39271945
-0.05755683 0.26915976 0.37000614
-0.06170132 0.20015071 0.41165632
-0.08551988 0.20959292 0.28868347
-0.055900827 0.21365003 0.32043886
-0.07503809 0.24693318 0.31472668
0.0042778775 0.21831934 0.33615309
-0.06627211 0.21119833 0.37448078
-0.065119557 0.27464628 0.32107842
-0.12668103 0.10849883 0.30769005
-0.037312202 0.2127185 0.36169863
-0.086869575 0.25162187 0.31088269
-0.080477834 0.20938724 0.30133307
-0.040231802 0.16807494 0.26240119
-0.030906871 0.25244385 0.3691656
0.00098641217 0.22560279 0.29781184
-0.089944057 0.19027509 0.38005513
-0.15348506 0.23593071 0.34497666
-0.066316009 0.22849597 0.34471652
-0.029939091 0.16436628 0.37708893
-0.11381939 0.20507869 0.23736052
-0.076431058 0.24421488 0.36074099
-0.085975662 0.21281531 0.27915439
-0.062009059 0.21688789 0.30480003
-0.073322512 0.16013876 0.34789011
-0.06628859 0.20775674 0.2957519
-0.14491415 0.20265353 0.24504103
-0.10074389 0.16193438 0.24587548
-0.078154057 0.21423583 0.23153453
-0.11533929 0.18352778 0.29406604
-0.066511981 0.26166379 0.38369906
-0.098059475 0.2227464 0.35723281
-0.041809283 0.2072801 0.28624728
-0.072673947 0.26049265 0.34603691
-0.094862625 0.25289962 0.3060759
-0.080873199 0.15721861 0.36975488
-0.1468505 0.2486925 0.35994864
-0.20522973 0.26239011 0.35306075
-0.10042484 0.26963669 0.36708549
-0.096246585 0.22758408 0.25142685
-0.10014006 0.22997087 0.31696573
-0.10693453 0.19763039 0.2944054
-0.1115568 0.19583049 0.31175348
-0.065832384 0.19657584 0.24816439
-0.073561318 0.18820848 0.26368415
-0.101701 0.22260489 0.27535933
-0.049380444 0.20372747 0.22395435
-0.080927014 0.25799882 0.23644719
-0.092680894 0.29709539 0.25031656
-0.068767026 0.21778609 0.2279159
-0.10080281 0.16078964 0.20418802
-0.016705599 0.19881698 0.27994213
-0.036900245 0.25837618 0.27909517
-0.069420062 0.25896567 0.34511223
0.032078929 0.19135576 0.30282816
-0.03751152 0.14374214 0.40939966
0.0034825653 0.20392816 0.28302041
-0.045131966 0.14969924 0.29853106
0.020472582 0.24267264 0.42655572
-0.04503214 0.16537434 0.41794944
-0.088058487 0.23932089 0.31894842
0.0011781454 0.20675075 0.40515849
-0.056767724 0.24987394 0.34030393
-0.04249879 0.26457736 0.40947631
-0.0047648437 0.19283484 0.37921497
-0.030946877 0.14692464 0.39975053
-0.044142347 0.2061469 0.36995336
-0.026379015 0.1673643 0.3789598
-0.063977815 0.21193384 0.34840086
0.014150463 0.23813383 0.38928407
-0.051596098 0.19807495 0.41334882
-0.088181086 0.20175469 0.30416167
-0.07819023 0.15939602 0.38867036
-0.0040144771 0.18630841 0.36078954
-0.014302054 0.20942631 0.35158187
-0.029549342 0.24353139 0.36517796
-0.11842771 0.2231214 0.35994935
-0.06201404 0.24721688 0.30931073
-0.062553301 0.2657491 0.38764122
-0.10676827 0.18841624 0.4223882
-0.015381139 0.22867344 0.32641274
-0.012153424 0.24108832 0.37332839
-0.037995331 0.19598207 0.35508767
-0.059236016 0.19778806 0.38014808
-0.10816951 0.23213847 0.29683003
0.049496248 0.25052488 0.40823469
-0.027805293 0.18949677 0.30617297
-0.036665916 0.2853896 0.35422474
0.032824647 0.19356486 0.21551238
-0.028109776 0.25161183 0.40303278
-0.11309953 0.24462382 0.28264979
-0.027557101 0.19362387 0.32302848
-0.066189624 0.17296392 0.32319707
-0.032947429 0.28282553 0.31606323
0.0005925782 0.20321672 0.30340022
-0.14932062 0.15970537 0.30873439
-0.10377561 0.23729625 0.28045973
-0.050019126 0.28110057 0.35935006
-0.092996456 0.25345135 0.27018297
-0.12040593 0.27736706 0.28705397
-0.13540822 0.30386722 0.28412443
-0.13169347 0.35533562 0.28347239
-0.091027386 0.23081005 0.27548206
-0.10329169 0.24921805 0.17903787
-0.023890976 0.28447682 0.25813624
-0.046380997 0.22021742 0.24263157
-0.019097306 0.27411139 0.21832153
-0.10515484 0.28269973 0.23792151
-0.12182987 0.2295076 0.22706345
-0.10135259 0.26596498 0.21028374
-0.10511291 0.30833799 0.25570428
-0.052889049 0.19538856 0.30854389
-0.07360889 0.22557008 0.22845721
-0.046445012 0.25256228 0.24725989
-0.019828618 0.29619005 0.29858068
0.026741259 0.21610513 0.23276705
-0.0074869916 0.21581404 0.29018524
-0.055991784 0.21380389 0.18258518
-0.098965868 0.24807751 0.28838542
-0.074071065 0.23597504 0.19295678
-0.10743746 0.2080915 0.31572619
-0.09641894 0.19019012 0.27240294
-0.068298981 0.22457063 0.2158646
-0.09971118 0.27112651 0.25059605
-0.067215748 0.24121644 0.18202743
-0.050060712 0.2242128 0.26181599
-0.057805914 0.24375343 0.26884106
-0.071995281 0.21843316 0.25325537
-0.08476156 0.34119871 0.21047126
-0.11130188 0.18716753 0.20426033
-0.041944448 0.24322 0.26765558
-0.072445564 0.27277017 0.18888341
-0.05280482 0.24262178 0.2833212
-0.084169142 0.32721439 0.27574405
-0.097847775 0.30014327 0.21329175
-0.06978599 0.35590371 0.2429103
-0.062801003 0.28744373 0.21126589
0.016292859 0.26125988 0.25811026
-0.16116914 0.25242046 0.27456427
-0.031017521 0.24648266 0.22342052
-0.012040235 0.20087725 0.22212961
-0.0901452 0.25287908 0.30340692
-0.022467706 0.18585852 0.25492656
-0.11830145 0.29404694 0.20823006
-0.068859428 0.24786074 0.17657802
0.0075394325 0.25533119 0.23037922
-0.08354032 0.23879685 0.2378374
-0.10943007 0.16287591 0.2183798
-0.099310666 0.19751799 0.2179153
-0.039180361 0.29676872 0.18107377
-0.070915475 0.28281635 0.252184
-0.1488364 0.2313249 0.25260246
0.0016392656 0.3190341 0.25653657
-0.10882542 0.21236004 0.22913426
0.050979417 0.24679349 0.23000793
-0.0063947439 0.28493261 0.11274557
-0.013299638 0.31378058 0.1825591
-0.08077991 0.25997618 0.2689268
-0.044639587 0.23128712 0.2554599
0.037307236 0.20226437 0.11170988
-0.14386477 0.29166254 0.23472452
-0.046189327 0.20541902 0.19024357
-0.012960672 0.22222058 0.12456969
-0.10267423 0.29586047 0.2069191
-0.10455392 0.30554906 0.24446976
-0.037940662 0.34544212 0.22827084
0.02392149 0.30334464 0.23104428
-0.034279734 0.22191644 0.21044543
-0.025680792 0.25187424 0.22560029
-0.065676779 0.32680142 0.27862272
-0.050869554 0.28824207 0.24957813
-0.041822895 0.32994196 0.16883716
-0.047254108 0.23013437 0.23261513
-0.060709633 0.28976631 0.17815922
-0.044597402 0.26064026 0.22289537
-0.02284044 0.31839433 0.13938484
-0.10192337 0.27881938 0.18479231
-0.067523502 0.23681839 0.13386492
-0.10843473 0.1818289 0.20442742
-0.069064647 0.27541491 0.22498548
-0.035339512 0.27442503 0.26340112
-0.11035985 0.31654361 0.21721941
-0.074167594 0.30971885 0.22128944
-0.066531733 0.26393443 0.27134141
-0.033053435 0.30359125 0.19136219
-0.089963645 0.30995667 0.15991703
-0.044649072 0.28817427 0.22549337
-0.11981106 0.27281168 0.2299581
-0.010098413 0.21658877 0.17309195
0.0010035224 0.28316057 0.22148837
-0.046023928 0.19561757 0.15913537
-0.052184679 0.1556852 0.19823544
-0.0093378164 0.32122561 0.22999698
0.016002022 0.29852328 0.27170795
0.026321765 0.29403386 0.18513361
-0.0058698086 0.28350121 0.16256595
0.0089424457 0.33319828 0.19101322
-0.014307238 0.29427937 0.25719082
0.011547018 0.30833054 0.23655309
-0.054185774 0.23005722 0.086832285
-0.044367433 0.21695456 0.23418079
-0.035654582 0.31799445 0.18267271
-0.048762474 0.31745094 0.16019946
-0.019404192 0.33687985 0.18807086
-0.055769131 0.21619095 0.35901043
-0.097788393 0.24448967 0.27836242
-0.046380296 0.29268312 0.19906557
-0.026636135 0.24960278 0.25389656
-0.074623041 0.28144613 0.27293903
0.01532948 0.24320725 0.3171593
-0.041422173 0.26264262 0.29888871
-0.057245247 0.26385182 0.22084607
-0.12810376 0.26902062 0.25257334
-0.14434195 0.21433365 0.24101028
0.014822841 0.22610787 0.42148784
-0.018212754 0.17194209 0.40621144
0.011560563 0.25768268 0.34549451
0.034462586 0.18705474 0.38093531
0.030111656 0.16036856 0.37839615
-0.053175148 0.14018194 0.30615214
-0.020265482 0.2268234 0.3186675
-0.075689472 0.18752678 0.33107856
-0.052096672 0.21418209 0.3612977
0.0083026029 0.16617143 0.42292857
0.02307331 0.17743215 0.38262758
-0.00011932198 0.17963269 0.41539466
0.047805797 0.1703393 0.24113643
0.048379511 0.25510985 0.33410722
0.072844878 0.21999536 0.31233743
0.084804654 0.23975268 0.40618065
0.037923619 0.19072872 0.40310791
0.003543165 0.1572842 0.41041827
0.017382609 0.22493945 0.29341185
0.042498484 0.17739311 0.36622182
0.045855854 0.21017078 0.41945332
0.004713309 0.18934822 0.29737422
-0.0028896127 0.22454976 0.36965212
0.04443799 0.24581778 0.39461213
0.046162933 0.19467831 0.39297336
-0.035699047 0.18002294 0.4017278
0.03190013 0.14491589 0.48145887
0.037502483 0.16630128 0.3574025
0.0030283835 0.13906696 0.39935604
-0.0036914088 0.17435724 0.41700709
0.020933164 0.18701215 0.34266013
0.049164243 0.25170887 0.37344611
0.017441593 0.24320523 0.46042314
-0.033572719 0.23662983 0.40226269
-0.0080489889 0.16765228 0.4217031
0.052561857 0.15171486 0.34932294
-0.036990248 0.14281519 0.38075352
0.017787978 0.16281967 0.33431271
0.075597189 0.20045058 0.40878052
0.025142139 0.18787678 0.39367646
0.069818482 0.2549704 0.47584185
0.084358394 0.23268038 0.38284963
0.057820886 0.13293108 0.35225409
0.065872014 0.18410371 0.41773668
0.0082270093 0.17486624 0.35436061
0.089154467 0.17702679 0.38665575
-0.0094138756 0.16922738 0.31727347
-0.042233706 0.22081016 0.36631894
0.024046021 0.15491089 0.3677083
0.058902338 0.22323352 0.42506486
0.02284332 0.15388474 0.3587859
0.041616868 0.23028205 0.37804002
-0.0032630004 0.15172899 0.36092332
0.084360294 0.15684699 0.39288744
0.0046833791 0.20846519 0.43306777
0.14909169 0.15428653 0.36034051
-0.042809155 0.20099011 0.42374322
0.020091305 0.229092 0.44520158
0.070004188 0.31761226 0.34384415
0.046728965 0.14402989 0.39011535
0.082804352 0.15748145 0.29267919
0.0057135262 0.17909285 0.29460967
0.047410883 0.21021932 0.32384184
0.044507198 0.16395915 0.29992309
0.074773148 0.19071102 0.38355377
0.039049607 0.19178088 0.35189953
0.083138391 0.10584059 0.32920876
0.066429719 0.23402143 0.41548538
0.095186248 0.19142985 0.38315225
0.035105027 0.21905081 0.3314442
0.059560027 0.26127201 0.31194288
0.04947836 0.20869325 0.37656105
0.075698361 0.17696604 0.38826352
-0.017118327 0.1917052 0.38057187
-0.039233249 0.22650921 0.3602556
0.047821578 0.22578703 0.33217391
0.055512909 0.19954994 0.37583703
0.05843202 0.15651958 0.39608043
0.12367921 0.28514209 0.34788886
0.032488264 0.21880676 0.38346511
0.03008496 0.17197172 0.30830267
0.047148589 0.23588637 0.34988526
0.081742704 0.21002778 0.34270322
0.065016031 0.17438526 0.39468127
0.054441374 0.18376425 0.30253175
0.0071375221 0.20335875 0.33432248
0.14324987 0.13994646 0.28560066
0.061081778 0.21377674 0.35409573
0.08732526 0.19032566 0.3739
0.10170728 0.18304411 0.37816501
0.097437695 0.120667 0.38204643
0.095578611 0.17682397 0.35122284
0.092695817 0.24658403 0.32768235
0.10955711 0.17486893 0.32246718
0.12700318 0.25780174 0.3307161
0.063583128 0.23843959 0.29133308
0.097303852 0.19651608 0.3232078
0.042605892 0.27692002 0.35463393
0.10652551 0.20039617 0.30863196
0.097049199 0.22767097 0.30515867
0.042979594 0.24968381 0.30198124
0.024971023 0.26331836 0.32791993
0.10457997 0.17529888 0.30612019
0.08606492 0.16732638 0.3742182
0.089983873 0.18457304 0.24360073
0.036320511 0.22067218 0.31696394
0.094520845 0.25527102 0.33696082
0.0086779036 0.16941819 0.25275835
0.010353226 0.18694378 0.35315421
0.1079075 0.14957151 0.28743473
0.062548727 0.25279614 0.31779903
0.052146144 0.22293332 0.21657874
0.049695618 0.24993038 0.24951947
0.079312459 0.15890364 0.24678978
0.096917018 0.27169085 0.40752012
0.12671292 0.18910655 0.31922662
0.073863052 0.20960139 0.37703571
0.078275852 0.15396285 0.22963542
0.10292879 0.14282447 0.30927426
0.052239843 0.23776597 0.36232242
0.11903708 0.27594179 0.26381871
0.075256854 0.33140531 0.38105187
0.071153641 0.28729033 0.28067988
0.041534711 0.23867875 0.24954005
0.069680497 0.23520491 0.29338494
0.018304102 0.1600668 0.27862614
0.096642345 0.23124115 0.22475728
0.090947434 0.21418576 0.29768634
-0.023051903 0.24637565 0.2343335
0.053490967 0.26481488 0.16862547
0.096132919 0.18235795 0.31813091
0.15814653 0.24106264 0.22111449
0.10414009 0.14600059 0.24516405
0.079063505 0.23649317 0.36903337
0.10956658 0.25978363 0.27283531
0.096041948 0.18059875 0.23670694
0.032763902 0.18374628 0.23480034
-0.081258364 0.22118118 0.36370513
-0.0027335179 0.31937909 0.32096213
-0.01589632 0.20752551 0.3821314
-0.015182011 0.1871427 0.42489868
-0.02404476 0.15816242 0.37886941
-0.010913033 0.29182643 0.39772975
0.10937048 0.22304088 0.35134321
0.037074249 0.17596991 0.40131885
0.097071141 0.22962035 0.45212373
0.027368573 0.26515689 0.34257996
0.025497653 0.22206239 0.36603677
0.041261327 0.22530036 0.44504327
0.092998087 0.30742002 0.38469824
0.091562048 0.22202253 0.33228931
0.0040865988 0.1565676 0.27307647
0.064891845 0.25591829 0.34602225
-0.014281578 0.24469231 0.38796604
0.046976965 0.23116343 0.28296456
0.11250474 0.2188634 0.40190396
0.053443655 0.19202475 0.39520591
0.073299959 0.24130647 0.45675802
-0.0055194125 0.23267901 0.42023471
0.034437925 0.2519469 0.40915388
0.045541372 0.19840842 0.35156643
0.060716577 0.22391707 0.31521553
0.03060326 0.25557944 0.2807869
0.069952577 0.2003694 0.3516269
0.071933597 0.21651228 0.34296194
0.066668138 0.15638582 0.37901026
0.035949994 0.17744051 0.36938852
0.021080155 0.27476904 0.35600042
0.076554537 0.19059159 0.37547195
-0.001966957 0.23838401 0.38039654
0.072909638 0.3007521 0.37169284
0.020213744 0.2675637 0.39072904
0.012599677 0.14605056 0.33494109
0.075052232 0.24407648 0.40261447
-0.0077387765 0.23238067 0.31671923
0.081870705 0.225164 0.3643944
0.073385015 0.22807468 0.33528677
0.031055702 0.21965151 0.33029065
0.13654947 0.20439821 0.29609734
0.076439887 0.25016546 0.37915111
0.031482749 0.20639956 0.29580662
0.062048115 0.21821223 0.25816101
0.05331542 0.24988887 0.30440357
0.055254512 0.25115189 0.35873193
0.12668917 0.25297341 0.27261713
0.038262598 0.22897142 0.23607911
0.066393524 0.22029732 0.24893178
0.055480741 0.28976679 0.26382825
0.05187127 0.278494 0.28105435
0.046946794 0.22959317 0.29155836
0.10128117 0.29174033 0.26849699
0.084480092 0.17813712 0.27989528
0.11744274 0.18967268 0.23916909
0.081942692 0.21453963 0.19147442
0.085241541 0.22721462 0.1735331
0.062380686 0.21368241 0.26530486
0.0078561381 0.22631474 0.20511983
0.06291008 0.23941115 0.24599327
0.078861646 0.2666055 0.20345423
0.052700438 0.24520247 0.24871039
0.041503511 0.14691645 0.22900999
0.039367869 0.19987832 0.21738493
0.065440729 0.22357309 0.24856387
0.14469397 0.2885482 0.24513692
0.16820295 0.24539185 0.21498989
0.055444833 0.2034128 0.29768649
0.041089132 0.23796235 0.23457077
0.077916227 0.19873072 0.28641063
0.0040568858 0.18271193 0.2471883
0.075858459 0.36818045 0.13947827
0.084105663 0.22920908 0.2067305
0.039705992 0.21450678 0.28497928
0.06370946 0.17493775 0.16964364
0.058921322 0.2281771 0.17054978
0.11945006 0.20033653 0.23253179
0.12031234 0.21414162 0.25266442
0.062259119 0.34369218 0.28040043
0.077028066 0.28600219 0.2099093
0.053810239 0.31672797 0.19693875
-0.0011141784 0.26251242 0.21665518
0.045416787 0.28804991 0.23936217
0.056144722 0.25489792 0.24127893
0.075101517 0.27116144 0.22834396
0.092185035 0.25643137 0.20133926
-0.020580731 0.20258412 0.20908526
0.012666494 0.28012395 0.20912635
-0.012684301 0.26899838 0.20202833
0.04760303 0.26361704 0.1745557
0.041202798 0.24856338 0.21608192
0.06407924 0.21701637 0.1350064
0.077169493 0.20628464 0.24518231
-0.01443148 0.22939493 0.15511896
-0.038010675 0.2569702 0.20080525
-0.016131848 0.2854166 0.19198528
0.023322498 0.292319 0.22329734
0.083850667 0.27335754 0.21346748
0.062511392 0.3348158 0.19361924
0.0043380782 0.30244166 0.16887924
0.029994186 0.30079919 0.25819558
0.057566356 0.24236491 0.14476621
0.062589101 0.22776234 0.23058459
-0.0032055639 0.23283452 0.19662941
0.043391284 0.23202929 0.19990385
0.082988903 0.26041627 0.19913878
0.045282077 0.29603705 0.23992842
0.049152646 0.21714431 0.2544376
0.038357791 0.19974913 0.15505242
0.038182445 0.30716628 0.23657614
0.072114408 0.37148294 0.2356267
0.037359804 0.28898779 0.15469936
-0.0066763572 0.3355954 0.29526484
0.040659122 0.21959034 0.2166905
-0.0061199032 0.24162094 0.27362296
0.12057275 0.32210487 0.2797195
0.020101167 0.29512298 0.18936323
0.053647935 0.23354262 0.20628245
0.037775308 0.25970888 0.23359284
0.1264483 0.28368756 0.11361806
0.076495886 0.29784065 0.30823979
0.021882791 0.2733489 0.25931203
0.091250196 0.22823951 0.15218218
0.087602526 0.26807603 0.23849106
0.083342589 0.29367468 0.25471222
0.019976018 0.27767327 0.30060995
-0.041549131 0.36823064 0.21763563
-0.00098866411 0.29409781 0.27982262
0.057157747 0.31488377 0.24648872
0.027201356 0.26848546 0.14284909
0.033534668 0.27738243 0.15515611
0.012292983 0.29145905 0.23699746
0.010045938 0.32362124 0.28022414
0.038984168 0.28236666 0.17042854
0.023729768 0.3254759 0.2135341
0.077388018 0.18880558 0.19480731
0.07550735 0.23998807 0.15851016
-0.021962203 0.33143982 0.24707295
0.039416499 0.27008405 0.14671303
-0.023361307 0.26182014 0.2543028
0.010601071 0.32889345 0.2100246
-0.087499931 0.35484254 0.23221426
-0.015451026 0.19626665 0.21573742
0.062733203 0.29846346 0.22841799
-0.015107268 0.25897297 0.23635918
0.065027364 0.21621893 0.35319418
0.073792577 0.24496895 0.21357265
0.053627878 0.23507461 0.34085858
0.071490273 0.28394589 0.29200956
0.034111336 0.27231911 0.24655052
0.10819086 0.28910908 0.23964576
0.071766086 0.244441 0.26151618
-0.025367379 0.28521425 0.21578771
0.015616942 0.23906104 0.28488547
0.15307111 0.27961558 0.29548371
0.020325854 0.32487011 0.47204968
-0.0051650736 0.40906632 0.46999916
0.013104262 0.34740853 0.43864828
0.04982708 0.42176658 0.53103876
-0.060451984 0.36215329 0.47117925
0.0062744864 0.32211331 0.46242389
0.033018604 0.41057539 0.45253521
-0.0082366159 0.30847043 0.46346563
0.026028721 0.27123094 0.46220249
0.027355244 0.29519612 0.40065125
-0.031445514 0.34806186 0.46421456
-0.057840001 0.27347001 0.5333463
0.0080279615 0.34198716 0.49174938
0.03344338 0.31263933 0.45842743
-0.024622742 0.38918674 0.43370026
-0.0014052985 0.38588098 0.47006804
-0.013217109 0.38268733 0.45342299
0.038925041 0.34462827 0.4923915
-0.04677939 0.3602353 0.5057379
-0.038485579 0.30180761 0.53637969
-0.028007269 0.35024238 0.47808397
-0.045286737 0.35426527 0.49132419
0.0024452712 0.35948306 0.48725826
0.011373037 0.34573957 0.50338823
-0.047442891 0.29281789 0.424566
0.019204134 0.36000431 0.4976095
-0.022399681 0.32806534 0.50702906
-0.059673849 0.25571698 0.49164188
-0.034475088 0.31772271 0.46115243
0.04244848 0.31994435 0.40008217
-0.022938352 0.34056133 0.45059842
0.0062617725 0.31923285 0.47048715
-0.07408414 0.34062549 0.59818411
0.056100465 0.30211329 0.50483334
-0.0099710077 0.3354865 0.47168177
-0.021532264 0.37024608 0.3780672
-0.027374463 0.2574603 0.50623101
-0.080472954 0.28018233 0.48803246
-0.049139783 0.2983261 0.41370511
-0.024156358 0.29615262 0.50769526
0.010563619 0.29082048 0.56939673
0.0016501723 0.31921086 0.56124198
-0.0088577699 0.29091996 0.42507488
-0.016037643 0.28721941 0.55428904
-0.021870896 0.32623014 0.47373724
-0.0096877459 0.33320233 0.52300888
-0.0067960657 0.30361468 0.4590216
0.030001735 0.3069236 0.49780133
0.020333553 0.33434665 0.45365033
0.028294504 0.32649431 0.45369911
0.023951229 0.28853559 0.51470125
-0.093326442 0.30385661 0.44618264
-0.012202378 0.41832131 0.5489735
0.015381413 0.41391975 0.5142706
-0.060641438 0.25883621 0.49516633
0.0019201115 0.31787533 0.54957819
-0.022285579 0.32442495 0.47653314
-0.13100371 0.2638039 0.52062297
-0.14095829 0.35188714 0.49491498
-0.0087026786 0.37206745 0.59860325
0.0057174843 0.42195302 0.47347769
-0.0070735719 0.35483786 0.46905711
-0.090035692 0.32066253 0.45852497
-0.10091455 0.33665046 0.47042054
-0.1215045 0.37372544 0.47731519
0.030716687 0.3226144 0.50721389
-0.027196066 0.32519913 0.50711596
-0.028876226 0.33801201 0.46889055
-0.064324796 0.37250921 0.44787133
-0.04921364 0.28204629 0.52474374
-0.094977006 0.35616452 0.43375188
-0.076804772 0.32205278 0.4981097
-0.031702615 0.29938239 0.46153194
-0.076760583 0.38621426 0.50756443
-0.082015708 0.4541651 0.49171996
-0.017071117 0.34015808 0.39686638
-0.035991509 0.37947106 0.47265887
-0.042215463 0.35045195 0.43734646
-0.026518434 0.34240738 0.49104977
-0.075396396 0.3920868 0.45468041
-0.02504479 0.32338586 0.45480943
-0.039496563 0.31686991 0.43790483
0.011799017 0.35673279 0.50349665
-0.012088029 0.37561074 0.49926767
-0.049836688 0.38453409 0.45247239
-0.069452167 0.3278605 0.42174435
-0.036252979 0.38723496 0.44394627
-0.058140911 0.42874643 0.49006304
-0.083605058 0.39420706 0.46070778
0.064179368 0.32641202 0.45671377
0.0046679182 0.33325839 0.49602607
-0.078248546 0.37288854 0.48750299
0.023780389 0.38872167 0.48801827
-0.057830881 0.42146826 0.46405619
0.036235504 0.23875661 0.50805444
0.052972581 0.3907524 0.47429889
0.026302995 0.44802272 0.53667384
-0.021759091 0.34581462 0.48218039
-0.022525184 0.33617651 0.48359293
-0.068020374 0.41274551 0.55698919
-0.026228251 0.38586056 0.41782486
-0.05842644 0.32089829 0.51274443
-0.098885432 0.32524854 0.44059163
-0.026500102 0.28795218 0.40551841
-0.064231142 0.32513347 0.50845611
-0.037507311 0.26381448 0.34269565
-0.00039004162 0.25559852 0.3916373
-0.016479149 0.27822536 0.40935743
0.010119427 0.26782015 0.46387047
-0.028850526 0.31072119 0.4974227
-0.044541746 0.34584373 0.50090837
0.034503415 0.24860579 0.48690668
-0.0059793433 0.31377441 0.47289911
0.076261692 0.32920694 0.44616809
-0.0081171747 0.3291201 0.46700355
-0.045881499 0.32556289 0.36088398
0.050608732 0.28156862 0.49598387
-0.0068336911 0.33307734 0.48028952
-0.10039084 0.26418188 0.43616512
-0.054377664 0.35436523 0.50272018
-0.041215848 0.39629281 0.44332325
-0.051943548 0.35916311 0.47299629
-0.02325375 0.29763377 0.3951211
-0.040660858 0.24272934 0.38728961
-0.0068115573 0.33773857 0.45916301
0.019125693 0.34243172 0.45996568
0.0034078285 0.33413434 0.42352271
-0.06700509 0.32076833 0.38062006
0.019870441 0.2769233 0.44150504
-0.084831797 0.32484227 0.38319287
-0.0062790196 0.36501396 0.36891434
-0.056420185 0.3683807 0.46400329
-0.024731351 0.35032663 0.44810748
-0.066566199 0.38015789 0.49083239
0.056984432 0.35433403 0.53355086
-0.031386662 0.30054045 0.53415328
0.052911032 0.27762842 0.43318355
0.020981008 0.29668546 0.52805114
0.061105885 0.31813017 0.51922649
-0.0065746554 0.34612045 0.4945142
0.031952392 0.30167526 0.4583914
0.022032006 0.2845155 0.43014273
-0.044836249 0.34609383 0.38772094
-0.018205676 0.34328929 0.38405609
0.011171741 0.23727906 0.42577186
-0.031302828 0.30914474 0.42888269
-0.023171678 0.29851177 0.40495715
0.0088517042 0.29119021 0.45146313
-0.022641957 0.29989082 0.42621651
0.031284653 0.29309437 0.40392196
-0.023604739 0.38629815 0.45706147
-0.026647529 0.32162011 0.44639313
0.0065488769 0.33673313 0.44482338
-0.089221582 0.31402484 0.46524897
0.0048631267 0.35944244 0.42201695
-0.010564202 0.3950597 0.41075119
-0.00020089932 0.29242626 0.43864357
-0.049730103 0.28039521 0.38086778
0.013770498 0.25717157 0.37564635
-0.0062440331 0.17403963 0.49312738
0.0225145 0.32380956 0.38770241
-0.0031096423 0.30183089 0.4212904
-0.068729527 0.35393173 0.3897728
-0.022354661 0.20019186 0.3712779
0.0068941731 0.24644573 0.40271124
0.0039083399 0.32796273 0.36909479
-0.12288505 0.3987318 0.40430573
-0.018690813 0.37207797 0.48131281
-0.0092353253 0.3525044 0.47506481
0.020528845 0.28967661 0.50044322
-0.047413327 0.33323961 0.44313109
-0.082863279 0.34108329 0.47257742
-0.027629308 0.36789104 0.54870445
0.0085553462 0.36529356 0.59170336
0.028170466 0.28764513 0.53101611
-0.036878586 0.36745942 0.54186422
0.027891818 0.43647283 0.43133286
-0.0069197319 0.3675456 0.54549825
0.032354627 0.43154892 0.54943883
0.028407807 0.39431894 0.449462
0.019149572 0.39517167 0.42845732
0.016128778 0.40245652 0.48973551
0.0084321462 0.39973557 0.53939223
-0.063246347 0.36739281 0.58811975
0.026003221 0.40277222 0.48994845
0.025233254 0.33046874 0.46856061
0.047220301 0.37906078 0.42862034
0.034346137 0.4225789 0.48557603
0.018658519 0.37602353 0.48438469
0.0013486911 0.37152982 0.52166736
-0.062861986 0.4242186 0.4939104
0.0226424 0.37692651 0.58448088
0.042823352 0.47656515 0.47647449
-0.020362837 0.44612977 0.49737284
-0.044088352 0.43056303 0.47811127
0.02493001 0.36199018 0.48144528
0.020014454 0.37672839 0.47714108
-0.062722862 0.40917045 0.42045397
-0.025409302 0.35264361 0.44564444
-0.026292305 0.37350655 0.50925535
-0.054076113 0.32895064 0.49022844
-0.0012119501 0.35693192 0.53960437
-0.025674203 0.34780589 0.48807821
0.015466979 0.2969518 0.45145741
0.010630784 0.37639952 0.49052763
-0.01101239 0.38922539 0.49490869
-0.068370901 0.33299282 0.52033758
-0.0027092919 0.35938084 0.44882721
0.0039482107 0.29001999 0.51306051
0.015935995 0.35732034 0.45413953
-0.010134643 0.35731789 0.54080015
-0.010927479 0.41519293 0.45888898
0.034303665 0.452528 0.48731425
-0.056230776 0.34638 0.39438537
-0.052212566 0.36637339 0.53442377
0.043028355 0.40044603 0.4853949
-0.057923794 0.44050044 0.43607342
0.023141673 0.41683328 0.48953521
-0.080736741 0.38629666 0.51458091
-0.036731377 0.37428614 0.50890076
-0.029528528 0.38783967 0.53831643
0.032827467 0.35730538 0.46442074
-0.027182814 0.43653554 0.50639558
-0.053067669 0.43390304 0.54248875
0.0044727828 0.34555957 0.45354226
-0.055772893 0.41604888 0.51638514
0.0075513404 0.34234273 0.49931154
-0.0072418666 0.37334585 0.473993
0.0072297286 0.44410908 0.50595778
-0.023317853 0.3053737 0.52192581
0.035202138 0.27157396 0.41619372
0.0070320498 0.36987033 0.53198349
-0.034541667 0.31989342 0.48841265
-0.055575565 0.41546401 0.48062569
-0.042700205 0.43962833 0.47093168
0.011863776 0.4561334 0.50381345
-0.12988077 0.34362471 0.4905926
0.001135977 0.37809622 0.47825187
0.030422064 0.36059007 0.45001006
-0.057782345 0.38035011 0.50174844
-0.024988651 0.41807425 0.47059762
0.048702508 0.39558008 0.45066914
-0.021483809 0.3474358 0.49876359
-0.058705747 0.3243714 0.49148452
-0.036766838 0.35552672 0.55584353
-0.018753331 0.35341582 0.5297662
-0.020286944 0.39790702 0.41535789
-0.050331905 0.31516415 0.41883934
-0.11357787 0.37256086 0.49561885
-0.040775873 0.31949705 0.49295467
-0.043135867 0.35605776 0.54126108
-0.026565598 0.39933771 0.49450123
0.0053786924 0.3215434 0.4393568
-0.00088432245 0.33703339 0.53572905
-0.025701981 0.32630953 0.52116209
-0.091571338 0.41711459 0.43745157
0.016102072 0.40676361 0.45863539
-0.023573298 0.4147265 0.47691762
-0.021569896 0.35605633 0.52484912
-0.044811405 0.31773272 0.59193885
-0.016030267 0.41755974 0.49360558
0.032100536 0.34922281 0.529351
0.015297616 0.30366293 0.49896982
0.090147346 0.39233443 0.48117775
-0.032528128 0.42183149 0.55159742
-0.018863888 0.3745541 0.47248566
0.0013040975 0.26243573 0.51215374
-0.01205856 0.40612561 0.49999937
0.026521835 0.40148133 0.46224332
0.0041542472 0.37936577 0.51850605
-0.024638142 0.3879821 0.49516231
-0.021132443 0.29102147 0.51839697
0.040506095 0.33267725 0.44204023
0.026135296 0.37445337 0.59025425
-0.020747915 0.3910501 0.59804559
-0.0088501517 0.46319181 0.42580616
-0.026721902 0.41095814 0.48008513
0.034745954 0.38136545 0.51431906
-0.034873113 0.35168144 0.5113706
-0.076665118 0.35605282 0.52428442
-0.0090711741 0.40214574 0.48183963
-0.042484626 0.32612863 0.5543794
-0.0083475504 0.34380418 0.50557071
-0.049864344 0.27300781 0.43441698
-0.045009948 0.39924741 0.51268393
-0.020933518 0.32753679 0.56550789
0.027886715 0.40344313 0.50306159
-0.048763279 0.38347703 0.43986881
0.0016150028 0.37589768 0.45813406
-0.028581485 0.38368851 0.46850455
-0.019373883 0.37232825 0.46452063
-0.045968965 0.34146068 0.54808944
-0.016270051 0.35810089 0.44788978
-0.028746998 0.36319384 0.46016383
-0.023495447 0.36014318 0.53971487
-0.081184208 0.34217504 0.52542919
-0.1239859 0.38583219 0.49615347
0.02755259 0.37970904 0.50284052
-0.075535066 0.3483423 0.51364863
-0.027976362 0.37277216 0.442103
-0.077026561 0.3862642 0.52130443
-0.029527875 0.38803294 0.48336172
-0.094529331 0.37915739 0.47616956
-0.022697367 0.4132694 0.55880487
-0.014580193 0.40189815 0.50039941
0.003970596 0.33154646 0.41274139
-0.025228661 0.3259151 0.53217155
0.020918729 0.3237839 0.51842308
-0.1141604 0.44910729 0.46735907
0.043089073 0.37767643 0.49919578
0.0044363104 0.38490185 0.50748593
0.024187241 0.34010059 0.57455206
0.027769148 0.34664619 0.47450912
-0.0071217585 0.35850388 0.54464889
0.027149474 0.35688224 0.51829308
-0.061898522 0.42984176 0.47946984
-0.11144577 0.39111906 0.47867131
0.0068879537 0.3430047 0.54609865
-0.013676728 0.34380475 0.49274051
-0.096261129 0.36994582 0.52783155
-0.009317399 0.38372454 0.45479929
-0.023261227 0.37589246 0.46436617
0.012821848 0.33133501 0.46328378
-0.016543008 0.35266045 0.44606501
0.025862753 0.42662537 0.4284977
-0.047485769 0.34536552 0.49100891
-0.073383614 0.37837884 0.49376199
-0.017916072 0.41109991 0.46638277
-0.033436976 0.3518306 0.54608238
-0.023868777 0.33929905 0.45205516
-0.0052407291 0.40286088 0.45930579
-0.017278461 0.36532319 0.53919548
-0.078148916 0.40504056 0.47846538
-0.0028513279 0.31443122 0.49618906
0.043364137 0.42348042 0.45271423
-0.049226061 0.4321408 0.45895168
-0.046487756 0.42946231 0.52098829
-0.1086935 0.36451438 0.47798324
-0.030692603 0.36643383 0.46496183
-0.053038485 0.24259895 0.381078
-0.043320321 0.25431183 0.36321646
0.016505599 0.23011938 0.47771141
-0.020173311 0.22320601 0.36082351
0.021082023 0.33059472 0.38644618
0.00044591166 0.32295337 0.42701662
-0.0016978309 0.27015892 0.38886589
-0.066297971 0.26042253 0.39926684
-0.042625338 0.2449027 0.38584238
0.0079757981 0.306961 0.43694541
-0.044840205 0.17844892 0.35704747
-0.052823864 0.26598561 0.38694507
-0.020684764 0.29102683 0.28699023
-0.061973877 0.27107972 0.38686511
0.028041517 0.24076098 0.38971761
-0.048759587 0.27107087 0.34710383
-0.045244519 0.33678371 0.31995153
-0.10010244 0.26626468 0.37903562
-0.073936105 0.26107821 0.40768206
-0.018647946 0.21054319 0.3610658
-0.042134289 0.23756506 0.33985025
-0.066413015 0.27358022 0.39760828
-0.035760209 0.26194021 0.37688166
-0.057432193 0.25565058 0.3934496
-0.0011382848 0.27246517 0.36665559
-0.087777235 0.32988951 0.40665528
-0.021647878 0.21748781 0.37119815
-0.017389376 0.3039425 0.36396965
-0.040589258 0.29259038 0.48158127
0.0076566916 0.1784506 0.46943346
-0.013053072 0.27433351 0.4365285
0.015594056 0.31854013 0.41689369
0.010339689 0.34860179 0.4236708
-0.023499195 0.24656212 0.38683361
-0.043824915 0.30622053 0.41317022
-0.085994333 0.30019903 0.43983138
-0.027869666 0.32619777 0.36549136
-0.028345887 0.26066694 0.44848445
-0.098272525 0.26486194 0.43310326
-0.054938018 0.27579799 0.41111031
0.022271505 0.28984195 0.39737496
-0.0095298048 0.25586671 0.39278749
0.0049796123 0.22807948 0.40265858
-0.028860185 0.24849449 0.41213802
-0.014568929 0.37459475 0.47994909
-0.053364452 0.3215104 0.37609532
-0.018845882 0.31624225 0.42532092
-0.027071703 0.26940373 0.39920396
0.025030456 0.28475949 0.39365339
0.0046687741 0.2904014 0.39059094
-0.042777129 0.31628305 0.36075535
-0.01225534 0.3055917 0.43468279
0.0056287181 0.27372572 0.37464118
-0.047695905 0.35100165 0.37404087
-0.0088565852 0.27478993 0.34935355
-0.069668993 0.31643546 0.4439972
-0.01374965 0.27448854 0.39825672
-0.043619752 0.33726335 0.47102261
0.036152955 0.25558293 0.40298393
-0.059201937 0.27330142 0.35599285
-0.016230095 0.32054946 0.343155
-0.058245156 0.32539791 0.38467258
0.0049100355 0.18433523 0.3352347
-0.026012219 0.28217849 0.34671065
-0.015619185 0.26371399 0.38413012
-0.024272203 0.24428916 0.44796926
-0.12048061 0.23779351 0.40622213
-0.0821831 0.29010615 0.37352684
0.038214963 0.33546796 0.41073856
-0.059649181 0.26390639 0.42165479
-0.080140747 0.29112107 0.44672382
0.07878007 0.33148313 0.41846222
-0.0097375149 0.33109125 0.38474405
0.0037987651 0.35524952 0.3374303
-0.020616405 0.23206955 0.42551312
-0.032957546 0.26794651 0.30993009
-0.026711181 0.36636668 0.32672969
-0.02333688 0.33392304 0.42155394
-0.060212318 0.32082444 0.41778034
-0.002533501 0.25556943 0.37235966
-0.068408161 0.30817708 0.36870044
-0.024498925 0.26002991 0.44701049
-0.080752425 0.39736125 0.40453142
-0.091066562 0.27268827 0.37521875
-0.021357739 0.29742348 0.37012109
-0.01786123 0.24635115 0.45909941
-0.064911306 0.31713721 0.35980764
-0.056311753 0.36195675 0.39314848
0.019005913 0.28340313 0.34974456
-0.034786679 0.26913005 0.33340356
-0.059734121 0.27806103 0.34275451
-0.0025728941 0.2522676 0.36531776
-0.034741614 0.31337819 0.40682155
-0.071207546 0.29311439 0.44296575
-0.025016444 0.27998793 0.34497246
-0.045777116 0.26141858 0.36338776
-0.022405384 0.28073999 0.44958648
-0.026302239 0.31874579 0.38108087
-0.033009078 0.31268618 0.42540228
-0.0064764679 0.26995766 0.38168854
-0.036697477 0.28638795 0.37209904
0.025074368 0.31078392 0.41098359
-0.043071896 0.27538097 0.50863451
-0.01004258 0.35510904 0.4638592
0.044922095 0.378746 0.48684075
0.033922859 0.40130946 0.49546465
0.020241152 0.31921998 0.49243414
0.022453118 0.31530502 0.49784285
0.0040693623 0.30197427 0.45889568
-0.011451402 0.38613418 0.5026176
-0.0098548811 0.35251069 0.49890897
0.041012637 0.32055444 0.55157393
0.0065699872 0.3579179 0.47088778
-0.047372214 0.31125531 0.48783848
-0.058320854 0.28419828 0.50310987
-0.012240404 0.27234983 0.46518144
-0.049499586 0.354406 0.48570579
-0.055403888 0.35383302 0.42486933
0.028183574 0.33220971 0.40264267
-0.030527707 0.33401749 0.47887126
0.018463569 0.26986694 0.37642032
-0.036741663 0.31953296 0.41639179
0.011244992 0.38016129 0.42752209
-0.021592084 0.29639375 0.43453771
0.019804308 0.36930975 0.47759211
0.055743512 0.32298857 0.41451302
0.0026244735 0.33100069 0.45855317
-0.028693754 0.3332831 0.44526809
-0.015942926 0.30844119 0.44759619
0.031159448 0.37806773 0.46861446
0.02417944 0.35449156 0.45962316
0.018140297 0.25129908 0.40155029
-0.063386321 0.31084642 0.45536548
0.033319347 0.37442154 0.41640893
-0.013939727 0.30731943 0.49635062
-0.05720818 0.30714637 0.4888708
0.032699205 0.34306058 0.39284524
0.00054088142 0.29806751 0.42306718
-0.025242537 0.34142834 0.51597875
-0.049617879 0.39316243 0.486958
-0.0027562873 0.39466381 0.58933842
0.00092647783 0.31926256 0.40443045
-0.076985098 0.31701195 0.53559226
-0.0085612517 0.3085593 0.50285494
-0.036360789 0.29656053 0.48172218
-0.0079680691 0.30594262 0.4951072
-0.016649786 0.3641817 0.41842613
0.046267983 0.33781925 0.41669238
-0.00030112994 0.35348544 0.45812064
0.012618725 0.31653908 0.4768354
-0.013837177 0.40658128 0.52502435
-0.011528704 0.28966489 0.47999936
-0.064107805 0.32085016 0.48747647
-0.0075614993 0.31852123 0.46927273
-0.0056800642 0.30806801 0.4743762
0.036893617 0.28805017 0.5566088
-0.034505624 0.3126184 0.48341998
0.0077995327 0.35664681 0.46117887
0.014774137 0.33507591 0.56432784
0.025182618 0.2969422 0.48266068
0.0058287121 0.31927654 0.54084212
0.038714927 0.36023411 0.42845708
-0.038892329 0.26217103 0.45019266
-0.0012103189 0.33743852 0.43294287
-0.05858954 0.22578639 0.40193263
-0.062499933 0.30873093 0.39470983
-0.038840115 0.31744599 0.47076735
-0.029107962 0.29246342 0.4272351
0.023710929 0.27049151 0.40447521
-0.017606292 0.2592648 0.47948158
0.024196681 0.27285185 0.40719715
-0.054799482 0.28997374 0.47782704
-0.051775847 0.32068577 0.45710301
-0.0857777 0.3095586 0.45789242
0.011330774 0.32621834 0.46752667
-0.052044325 0.23778297 0.45283359
-0.075102545 0.3933661 0.43961427
-0.013028304 0.27759296 0.4651002
0.018306477 0.31630877 0.519243
-0.04222893 0.36338475 0.39983809
0.008583663 0.34438658 0.42909855
-0.11879167 0.35100457 0.50616002
-0.048115201 0.29496413 0.44836035
-0.01039299 0.28769726 0.37183687
-0.02399715 0.37815124 0.38339019
0.025413539 0.33868182 0.42904967
-0.03195294 0.28242874 0.4386225
-0.027628699 0.30556437 0.43503466
0.006525524 0.30978826 0.4304516
0.0094112363 0.2898941 0.45086157
0.034420814 0.27383122 0.39899299
-0.013662461 0.24014384 0.51310146
-0.060539819 0.30716205 0.52646971
-0.0072181197 0.3106463 0.48755974
0.0028563663 0.36696261 0.48010314
-0.015607642 0.2923685 0.40883669
-0.0004098732 0.3449859 0.49413314
0.0041211229 0.25179696 0.47682187
-0.075441569 0.31697932 0.45383346
-0.0020805057 0.28679979 0.5367707
-0.06462881 0.38303566 0.44425499
0.024010671 0.252204 0.48501423
-0.067059793 0.29497913 0.40819466
-0.04509303 0.33360821 0.39325827
0.074434042 0.25014174 0.45814851
-0.065441929 0.32615739 0.44868508
-0.016534634 0.26473549 0.49975571
0.0222369 0.25600225 0.46296534
-0.08289063 0.30785468 0.57468063
0.015821395 0.36501017 0.48587725
0.0032091215 0.28288329 0.44536921
-0.031913415 0.29534784 0.48929542
-0.0065658847 0.33836877 0.46630257
-0.03309036 0.25903636 0.33875272
0.012827808 0.38987556 0.41143304
-0.10536399 0.32044557 0.46432549
-0.04789209 0.27461764 0.39823917
-0.0022592107 0.25131971 0.54014069
0.024978479 0.33210602 0.50860131
-0.057704255 0.33003247 0.47941706
0.037796572 0.38481608 0.44692767
-0.058758356 0.32651404 0.44567645
0.015906576 0.34509584 0.45935717
0.001259936 0.31654271 0.47012389
-0.032594383 0.23200408 0.44157797
0.025774725 0.29114553 0.45906442
0.056855377 0.27442551 0.50665665
-0.029653052 0.3072173 0.47881553
-0.033844471 0.40530136 0.47201017
0.013812413 0.28897169 0.45695767
0.012035858 0.33789706 0.51680154
0.010808547 0.31351167 0.42087588
-0.10144285 0.31214401 0.44121143
-0.064110279 0.28327814 0.46982002
0.0088254418 0.29777351 0.48825118
-0.020819955 0.31972536 0.53319377
0.021421913 0.31031072 0.51463628
-0.064214155 0.34234717 0.44022664
0.039327219 0.34802178 0.47557902
0.042240959 0.29847333 0.44157913
-0.018607374 0.32849044 0.51638138
0.012893371 0.31148243 0.47252843
-0.031065889 0.30576348 0.45058382
-0.040780686 0.26437974 0.48671824
-0.052329443 0.25281143 0.46420911
-0.040617354 0.25702184 0.40356132
-0.043091238 0.27070013 0.47045407
-0.071730316 0.28509128 0.44540164
0.037096262 0.2829389 0.4377594
-0.08489228 0.26154527 0.3919276
-0.018690966 0.24991409 0.50751096
-0.01806543 0.32882878 0.38895291
-0.023326151 0.27524012 0.45129675
-0.086595111 0.29784095 0.43277276
-0.096782878 0.32678097 0.48294079
-0.049237076 0.30005881 0.44900146
-0.0069227377 0.33467767 0.40897933
-0.016470686 0.32125631 0.47844848
-0.076063216 0.40402958 0.54278421
0.0027001034 0.30704814 0.43993446
-0.019725595 0.28401676 0.47592619
-0.042541504 0.33030549 0.46543801
-0.10143922 0.38325852 0.51077789
-0.024000365 0.26989624 0.4468087
-0.0027714195 0.30589315 0.46165389
-0.039467625 0.28679425 0.4302426
-0.036779802 0.41997817 0.42913592
-0.025479997 0.25949922 0.47877195
-0.059877053 0.28647441 0.47267705
0.060388342 0.34503123 0.4081662
0.01110658 0.33582962 0.46719533
-0.030852074 0.27910942 0.52766961
-0.082554661 0.33280906 0.51026076
0.021870263 0.32377148 0.49755502
0.006286649 0.27120268 0.43381977
-0.072647512 0.36527491 0.51228708
-0.055530891 0.30751035 0.49046382
-0.0064100055 0.3074967 0.52749038
-0.081841998 0.29060173 0.47718108
-0.00062084198 0.30726933 0.46075147
0.022822427 0.3301644 0.44753644
-0.021867741 0.29266149 0.48871481
0.06287808 0.35567024 0.48684916
-0.054716419 0.28201348 0.47873628
0.045979366 0.28505921 0.42193213
-0.010631699 0.33276489 0.51898766
-0.041292608 0.28605664 0.48298833
0.025123116 0.25952041 0.55759823
0.049508914 0.33075908 0.42852587
0.030449545 0.35686895 0.45545512
-0.049204499 0.36294505 0.51651055
0.011509821 0.37801981 0.47001263
-0.017756609 0.28508425 0.43125427
-0.0097871134 0.29541951 0.5260247
0.011644403 0.36284474 0.54744726
-0.034987062 0.32286105 0.47752586
0.018353254 0.30901608 0.48813018
-0.086939603 0.28942031 0.47336856
-0.009009663 0.28667152 0.46565351
-0.012280327 0.25502935 0.51010209
-0.096474677 0.34670657 0.47439247
-0.038297802 0.19124056 0.51848936
-0.016725076 0.34608859 0.47917691
-0.075978272 0.29740143 0.47276026
-0.064059004 0.33705294 0.480497
-0.082162321 0.26156852 0.45116574
-0.035240203 0.31958115 0.3744176
-0.062740773 0.27396053 0.36456814
-0.0096643493 0.28980091 0.50317693
-0.056776106 0.31834915 0.5143292
-0.10039335 0.3346788 0.46758351
0.0096892752 0.35213301 0.41571277
-0.028441425 0.37278229 0.54304725
-0.060318023 0.3267529 0.51068187
0.035565265 0.34528184 0.53574753
0.012985624 0.28716543 0.41307473
0.0074173305 0.3553201 0.53901434
0.046769608 0.454005 0.44333842
-0.0026185431 0.23944503 0.45346537
-0.077599235 0.36612767 0.47050887
-0.028429125 0.27434176 0.47920781
0.12089229 0.2956841 0.4628129
0.012185376 0.31574911 0.54529226
0.039470647 0.25181586 0.5348419
-0.075561598 0.38191664 0.51738763
-0.02510554 0.37192568 0.48148814
-0.032298956 0.30856103 0.48759639
0.032179862 0.32700291 0.46596527
-0.0057877861 0.38617927 0.48277721
-0.010216916 0.37720546 0.44772235
0.012087507 0.28759563 0.50640959
0.020732127 0.34622648 0.54493356
-0.0043759495 0.29419085 0.49299985
0.1179843 0.35977411 0.49496847
0.057121798 0.31203973 0.50185168
0.066882595 0.30944568 0.43751201
0.025528751 0.38502884 0.45419899
-0.016778843 0.30525407 0.54523808
0.0023680655 0.33939004 0.45736828
0.037080325 0.33375466 0.53537929
0.031277083 0.30218223 0.46135435
0.034389719 0.3392126 0.44524133
0.042185858 0.25212538 0.49312308
-0.07077983 0.30895749 0.42481151
0.061725289 0.32694048 0.36451668
0.098260283 0.2647292 0.46220031
0.04986196 0.38725308 0.50995833
-0.0083460677 0.33036792 0.47240391
-0.039930332 0.30573356 0.50661469
0.0083197029 0.3564586 0.49396321
0.013425484 0.2985096 0.46803263
-0.036840461 0.41622236 0.42954609
-0.059890959 0.33770174 0.4800345
0.060369641 0.36431253 0.55912828
0.059689544 0.30800688 0.48742113
0.019869868 0.2951237 0.49678254
0.0079806736 0.32071537 0.53362012
0.06714914 0.31657684 0.52114958
-0.019145977 0.34717855 0.47568029
0.0052214181 0.343896 0.40217412
0.021063417 0.25058842 0.48325509
0.0020905137 0.39433405 0.42129874
-0.037951309 0.28877231 0.46975851
0.036545075 0.34323454 0.61766577
-0.058733974 0.30091786 0.54513311
0.0089130187 0.32866448 0.43199724
-0.019266695 0.36870572 0.505
-0.031702265 0.31296504 0.49765718
-0.0092998538 0.40808892 0.44641203
-0.025678385 0.37026992 0.5225541
0.065581381 0.39426365 0.42884082
0.03729232 0.34718519 0.49190819
0.026985684 0.3186262 0.4764339
0.044786453 0.38985121 0.48327649
0.02500294 0.38429096 0.5321216
0.0039462131 0.33735129 0.51950252
-0.015148083 0.30890316 0.50726467
0.047245644 0.42656446 0.48235416
-0.016424416 0.38488472 0.44948655
0.002623966 0.28692877 0.41319495
0.024280157 0.33541676 0.4321295
0.030428611 0.41141042 0.53507596
-0.0060151834 0.38072503 0.49075818
-0.014129514 0.38278869 0.49290782
0.049578462 0.35772604 0.500211
0.074361287 0.31911698 0.55084884
0.017186925 0.42329994 0.51491499
0.063245773 0.36434266 0.49783313
-0.018047139 0.39077619 0.47778052
0.011615166 0.33900172 0.41804332
0.013840958 0.3457551 0.4858163
-0.011875142 0.37100902 0.46086735
-0.0086955242 0.35634506 0.45897523
-0.0030037826 0.40043235 0.41508779
0.046142943 0.33935246 0.38934916
-0.034490414 0.36887419 0.50565636
0.049949326 0.43217269 0.42910498
0.0067693666 0.43458232 0.43536419
-0.020608153 0.32160166 0.46213529
-0.063107662 0.3987774 0.50482178
0.046897363 0.35586077 0.47567698
-0.00046192575 0.379067 0.50901061
0.0080470787 0.33849844 0.48443362
0.0028744589 0.37294593 0.53592008
0.0050761485 0.34333491 0.5553754
0.071654722 0.39313313 0.524445
0.060396213 0.30826616 0.42097777
0.019444982 0.38903442 0.55891311
0.0054867826 0.3488279 0.40170118
0.0023966078 0.31981373 0.4322606
0.089680471 0.31915498 0.35994673
0.087980464 0.28038308 0.45037088
-0.016838148 0.3479965 0.38218212
0.046571534 0.33360839 0.44157839
0.083238788 0.35221249 0.55475295
0.052857041 0.32539022 0.50279129
-0.012920719 0.29858091 0.41299808
0.023086216 0.29903448 0.40859294
-0.0087675676 0.29073572 0.41420633
0.054992095 0.32250854 0.4665463
0.016089298 0.28710046 0.4150044
0.00067942729 0.31011307 0.47268823
-0.030165143 0.28332368 0.46107337
0.040756494 0.29085389 0.4874661
